# This PCD file was generated using the MATLAB® pcwrite function
# from Computer Vision Toolbox®.
# .PCD v.7 - Point Cloud Data file format
VERSION .7
FIELDS x y z intensity
SIZE 8 8 8 8
TYPE F F F F
COUNT 1 1 1 1
WIDTH 639
HEIGHT 1
VIEWPOINT 0 0 0 1 0 0 0
POINTS 639
DATA ascii
13.809285105120111 15.498905492015464 0.088255864884149 0.000000000000000
13.612442869303067 15.343418006208847 0.034949006695047 0.000000000000000
13.467256920955384 15.140539992481241 -0.018317352000313 1.000000000000000
13.357636131498158 15.078477351862215 -0.072194021240615 1.000000000000000
13.287594564390929 14.958056891445285 -0.126922343750157 3.000000000000000
13.230169352872069 14.920718675717037 -0.180014207298540 3.000000000000000
13.219201405687999 14.865088419999633 -0.237388446589965 7.000000000000000
13.177362307225136 14.875448009784535 -0.292941836330018 8.000000000000000
13.188091872408416 14.842955885384431 -0.350266003087391 2.000000000000000
13.132588273049251 14.838560792986819 -0.404010987724941 3.000000000000000
13.152417621398959 14.841327318001188 -0.518566309281676 8.000000000000000
13.159646558631351 14.805418839526634 -0.576058862525058 7.000000000000000
13.136212164469464 14.835737632198022 -0.632396518040597 10.000000000000000
13.121836994049852 14.776024755010798 -0.687447634169478 7.000000000000000
14.126701287216212 15.926404616371880 -0.841702878021429 64.000000000000000
13.216679821094241 14.916056722850968 -0.867313662524927 6.000000000000000
12.866245328720714 14.492454491419892 -0.885969495505181 4.000000000000000
12.563576327802503 14.122812239953252 -0.904602703333420 7.000000000000000
12.273536919296182 13.860449069080079 -0.929061214436848 7.000000000000000
12.067719000764972 13.597007393510438 -0.953362622826162 6.000000000000000
11.607535694016727 13.084085067411724 -0.996048694911809 5.000000000000000
11.264289374968106 12.675983708053579 -0.999272386641354 2.000000000000000
11.115609775025170 12.479032270828210 -1.023865125312144 4.000000000000000
9.945013206772016 11.225975089360752 -1.118750150401995 4.000000000000000
9.085739055983252 10.239272218871328 -1.205787624668480 7.000000000000000
8.308031521090006 9.351629653123045 -1.267539026159475 5.000000000000000
7.674222140420314 8.626404750103926 -1.289177725860694 5.000000000000000
2.300970814637396 2.590458949807164 -0.483576790408825 14.000000000000000
6.235357978008909 7.029204302571144 -1.439649937846957 6.000000000000000
5.859264029615214 6.598863201775438 -1.461883102500975 7.000000000000000
1.977437881251984 2.230222646706778 -0.630355465055161 27.000000000000000
35.361755077410010 39.476012699430321 2.990563410318606 34.000000000000000
16.211402454438275 18.103074772849585 0.718183056502191 16.000000000000000
16.137611062039937 18.092339511350914 0.648448975612320 8.000000000000000
16.073034014452329 17.996159731668939 0.507993645441945 0.000000000000000
16.599857004680189 18.513893278987865 0.435227336039456 2.000000000000000
16.538199611597193 18.517963147725059 0.364404230926134 2.000000000000000
16.178435485959739 18.073588231535759 0.296416562270542 3.000000000000000
15.946931188013860 17.891030248730090 0.230960855212801 22.000000000000000
14.237913636687747 15.902674750155708 0.138382796062306 0.000000000000000
13.828497419334678 15.415947098355556 0.088542508125565 0.000000000000000
13.631196068253182 15.261081191960557 0.035385893223920 0.000000000000000
13.485263258171294 15.058760980462878 -0.017729746874401 1.000000000000000
13.386369941159748 15.008756614593572 -0.071934320485124 1.000000000000000
13.310445902986199 14.882751678471191 -0.126302636719682 3.000000000000000
13.258283272065400 14.851473573602231 -0.179561434785781 3.000000000000000
13.293365260409377 14.845679489877753 -0.239451679973298 11.000000000000000
13.311250161888820 14.920749373081929 -0.298743490590828 6.000000000000000
13.194193791855207 14.750458028870892 -0.348107796911027 2.000000000000000
13.165913196092760 14.775507838295933 -0.403553265621090 5.000000000000000
13.182971766471221 14.775298179008562 -0.517757143961107 9.000000000000000
13.217246122627270 14.768649066081824 -0.577408047632709 3.000000000000000
13.152181654316763 14.710129708564910 -0.686387680862845 10.000000000000000
13.164407566954775 14.680159836815651 -0.741296889889643 3.000000000000000
14.144844149905103 15.839372734002758 -0.839060882657926 64.000000000000000
13.263770024556061 14.867384603500476 -0.867710748550741 5.000000000000000
12.879283913995394 14.409943827145231 -0.882802683062474 4.000000000000000
12.610633513193163 14.079351585311002 -0.905248175588576 7.000000000000000
12.300704983562595 13.797541948009524 -0.927466059403636 6.000000000000000
12.093953801027446 13.534845161020801 -0.951677434164171 5.000000000000000
11.623771026604853 13.014826595974053 -0.993119370015270 5.000000000000000
11.303567348843528 12.634156409518013 -0.999486367569230 3.000000000000000
11.132412150906646 12.414493567238353 -1.021052084939302 4.000000000000000
9.984682678752836 11.194570512759615 -1.119705867829175 4.000000000000000
9.113800512705101 10.202203940974854 -1.205224018288791 7.000000000000000
8.335715966869259 9.320173723644853 -1.267380686813151 5.000000000000000
7.699372524257067 8.597187807054858 -1.288929641591663 5.000000000000000
2.302120039164956 2.577878860008769 -0.481182754306431 13.000000000000000
6.246786196281704 6.996645123754136 -1.436555643409561 6.000000000000000
5.877349005960171 6.576059878621353 -1.461263904921237 7.000000000000000
1.980187427234947 2.210329585500385 -0.625613730779339 28.000000000000000
35.613322755581905 39.479594750626404 2.996851749736113 35.000000000000000
16.755233104079331 18.621174498313675 0.796767819985523 0.000000000000000
16.239364967791680 18.080406708294976 0.647969803784378 6.000000000000000
17.055902688649052 18.934493973358617 0.507069297447728 2.000000000000000
16.606078342023725 18.466469629487843 0.363505638599104 2.000000000000000
16.187601021383159 17.961812829148641 0.296265476662324 7.000000000000000
16.053383240463731 17.885639793378292 0.229334837202991 27.000000000000000
14.179284249271982 15.733517711172968 0.140566794848064 0.000000000000000
13.858230695884679 15.344710039262928 0.088496658238226 0.000000000000000
13.635901432009280 15.164172502978882 0.036297475490697 0.000000000000000
13.524712508113224 15.000395079905729 -0.017995811857698 1.000000000000000
13.409326636066883 14.933153520367430 -0.071438652988727 2.000000000000000
13.341120317827835 14.816228226906691 -0.126073980203077 3.000000000000000
13.296984110532200 14.793893098485430 -0.179676352390018 5.000000000000000
13.367550294010661 14.825925119074331 -0.241520397270319 18.000000000000000
13.328413560697195 14.839595519401367 -0.297442283179270 29.000000000000000
13.216183769937802 14.675603036511340 -0.347012204830641 5.000000000000000
13.226246467550434 14.643387343657835 -0.402263593048824 24.000000000000000
13.224125062502690 14.720909265604828 -0.517798176772761 9.000000000000000
13.266560028507614 14.722902562681469 -0.578087744816049 2.000000000000000
13.195853340268966 14.658776638124575 -0.686567899978589 14.000000000000000
13.186135980938202 14.605477489374774 -0.739380020727201 4.000000000000000
13.291626351653434 14.798133868392593 -0.866132426909090 5.000000000000000
12.916428358790016 14.353726941429418 -0.882286498230792 5.000000000000000
12.660265468683917 14.038634500000207 -0.906202550862986 8.000000000000000
12.335747327338273 13.743345945842400 -0.926825738044385 6.000000000000000
12.125349643526922 13.478481596508495 -0.950651655015384 5.000000000000000
11.653301056982990 12.960130887172838 -0.991953298417409 5.000000000000000
11.367266915594367 12.618299593713949 -1.002985077665898 4.000000000000000
11.165304474467023 12.367352633978186 -1.020495589517964 4.000000000000000
10.018794273603390 11.157238248952204 -1.119772534033048 4.000000000000000
9.152642512736776 10.176549689492639 -1.206721270573288 7.000000000000000
8.371485858526734 9.297216733996265 -1.268976456723014 5.000000000000000
7.732627670608610 8.576425055503226 -1.290606673287196 5.000000000000000
2.308940750088682 2.570297667230278 -0.481298427228009 11.000000000000000
6.274434258295946 6.980868738431350 -1.438581788655512 6.000000000000000
5.908981852800339 6.567090935092291 -1.465238625347705 7.000000000000000
1.971643316963650 2.192278160445942 -0.617479114141334 32.000000000000000
35.865342826541649 39.481899867962305 3.003120169671348 34.000000000000000
16.431658851929409 18.095544743252198 0.717766881336795 15.000000000000000
16.346685012413037 18.073820790732086 0.647529312813348 8.000000000000000
17.411969141251639 19.188066023538273 0.506144901868607 0.000000000000000
16.619219822690997 18.356229791795926 0.363082759823388 2.000000000000000
14.495890485281814 15.986231666715611 0.256923800676744 1.000000000000000
14.339012536608960 15.772641291490974 0.197464823349822 0.000000000000000
14.155266964322541 15.602832743868060 0.141832684083231 0.000000000000000
13.876658111620282 15.261810144422505 0.088783596226893 0.000000000000000
13.675684137153050 15.105300604354124 0.035976047285892 0.000000000000000
13.541983212697037 14.918638036098557 -0.017408449059522 1.000000000000000
13.448330459866401 14.875070116356820 -0.071653858778607 2.000000000000000
13.376968879744171 14.755488748460142 -0.126107087745901 4.000000000000000
13.357346516919900 14.759515658975573 -0.180928263898602 6.000000000000000
13.471918702684095 14.837816557711466 -0.245288796471373 3.000000000000000
13.350642072910121 14.764323404612092 -0.296471774206442 2.000000000000000
13.265205443436063 14.629851810957419 -0.347691725090428 16.000000000000000
13.266932609650290 14.588894507857372 -0.402376269957229 110.000000000000000
13.244248438199943 14.619350671597548 -0.460731371752927 65.000000000000000
13.278733284005211 14.680959662774054 -0.518903637124553 4.000000000000000
13.315711786509667 14.676983586238968 -0.578770323120317 9.000000000000000
13.244798407172480 14.613097934106548 -0.687246340470826 19.000000000000000
13.341015194052837 14.752128752095178 -0.866816363156046 5.000000000000000
12.969748191804996 14.314840026207101 -0.883540413784124 5.000000000000000
12.698809059133824 13.986140586705723 -0.905934694558133 8.000000000000000
12.370559774932369 13.689060023818694 -0.926186934365982 6.000000000000000
12.156497302146835 13.422057614120572 -0.949627010543787 5.000000000000000
11.663424735067832 12.885116478490495 -0.988318253000425 5.000000000000000
11.417285113642144 12.587693876348911 -1.004664074962871 4.000000000000000
11.195256160326315 12.317233154118387 -1.019564393918814 4.000000000000000
10.063719991930409 11.131311684312823 -1.121624479948790 4.000000000000000
9.174955766494481 10.133553497527377 -1.205130964590966 6.000000000000000
8.390720984022961 9.257017082933675 -1.267068342314409 4.000000000000000
7.752083902602291 8.541355522747665 -1.289078793445066 5.000000000000000
2.319615925674233 2.552586971039768 -0.480275745391486 11.000000000000000
6.302045174368041 6.964976378103276 -1.440609780595595 6.000000000000000
5.924195954484113 6.541352839427165 -1.463703346487868 6.000000000000000
1.968392938705156 2.167918584095580 -0.609441503633825 33.000000000000000
36.106940772359749 39.471201091236289 3.008615345188411 35.000000000000000
36.178022655608359 39.517744770648740 2.383484153422082 14.000000000000000
36.146404509722096 39.570695257839105 1.757647527507681 11.000000000000000
16.547526178503720 18.096757632322397 0.717615226536684 12.000000000000000
36.207040141232191 39.562913914015375 1.443983461236756 11.000000000000000
17.446576758938100 19.095604103990485 0.505253574361362 0.000000000000000
14.555557371771423 15.989196020478349 0.317684589720007 1.000000000000000
14.489082247667321 15.872057537027761 0.257230739387993 0.000000000000000
14.265350709522588 15.589434407928657 0.199480111025244 0.000000000000000
14.127758310005179 15.469596298924152 0.143174854505001 0.000000000000000
13.878148144861076 15.161562968401054 0.089571779474287 0.000000000000000
13.687741558448026 15.017278163403514 0.036604140045285 0.000000000000000
13.575356531033897 14.854349268351541 -0.017462754977634 1.000000000000000
13.481598078300463 14.811076331215563 -0.071633548081006 2.000000000000000
13.423551715414279 14.706280947457511 -0.126664099890996 8.000000000000000
13.450608045163118 14.759724752775369 -0.183888693139688 6.000000000000000
13.458189494699573 14.724511966731924 -0.242436325462349 49.000000000000000
13.345048185727896 14.660030802499541 -0.293843864892113 5.000000000000000
13.303066592654798 14.572338422889278 -0.347663474044947 18.000000000000000
13.315657212804933 14.542974751594482 -0.403058569397920 42.000000000000000
13.317810592905836 14.599614841035574 -0.463222842684901 13.000000000000000
13.357932094420690 14.666911004643907 -0.521926051196055 6.000000000000000
13.317963946096333 14.581649123322435 -0.575636357637132 11.000000000000000
13.301822066757140 14.575948442845988 -0.688671938527684 7.000000000000000
14.191173061040123 15.572835289075922 -0.830612353923452 17.000000000000000
13.384757166608106 14.700154013964227 -0.866937445887805 6.000000000000000
12.987259525136936 14.238128670566329 -0.880964069220890 5.000000000000000
12.748134365133282 13.945090528289917 -0.906894468292873 7.000000000000000
12.399656379124913 13.628909636270993 -0.924912937285850 6.000000000000000
12.195634867304399 13.374242183103522 -0.949592485991701 6.000000000000000
11.670415801352073 12.807295444701058 -0.984329325558586 6.000000000000000
11.442464639705127 12.530959695730481 -1.003061173348501 4.000000000000000
11.238764168093070 12.281434398835877 -1.020516410968058 4.000000000000000
10.094837601347372 11.090850673297741 -1.121249476063819 4.000000000000000
9.210843503613322 10.104800494122372 -1.206117095241961 5.000000000000000
8.423551346100782 9.230989542740549 -1.268083392733377 4.000000000000000
7.790698046123791 8.526018923164212 -1.292042598014164 5.000000000000000
2.326345332345003 2.544944922710303 -0.480392458181380 11.000000000000000
6.324122262907940 6.943400570507698 -1.440932380816160 6.000000000000000
5.958528923977669 6.534903186147129 -1.468600784498039 5.000000000000000
1.970929363629639 2.159217314070485 -0.607892906407800 34.000000000000000
36.365262303863602 39.476808096366128 3.015221258256924 34.000000000000000
36.215432536517874 39.286585977467936 2.376539498610531 15.000000000000000
36.167743943616685 39.321931665351038 1.751840272406156 26.000000000000000
16.655339063279690 18.088681453608277 0.717350720298934 6.000000000000000
36.225414458178328 39.311137166331854 1.439093310649557 28.000000000000000
36.206939134771652 39.448886258408834 1.286113185541942 18.000000000000000
36.211732612541446 39.340419002972993 1.127898780832855 35.000000000000000
17.004812458036753 18.500784601602881 0.504484616735532 0.000000000000000
14.562383380301092 15.889444158582439 0.317551999095610 0.000000000000000
14.498196720363168 15.775505399236447 0.257252982015852 0.000000000000000
14.276184278429463 15.496621489777247 0.199645933935392 0.000000000000000
14.121573119376642 15.359890038321371 0.143949858063501 0.000000000000000
13.912275474550638 15.096164742531194 0.089358709896404 0.000000000000000
13.715897355696260 14.946714256683705 0.036661660615582 1.000000000000000
13.613966604565922 14.795784109027061 -0.017732716562494 1.000000000000000
13.506311697687302 14.738333165808434 -0.071258194570986 2.000000000000000
13.469950646353297 14.656920091613653 -0.127223644166712 9.000000000000000
13.411627685307410 14.620578842474675 -0.180031426017109 5.000000000000000
13.402397339601995 14.568140722658764 -0.237265519499237 38.000000000000000
13.352666417696900 14.570414207604625 -0.292042577601012 8.000000000000000
13.362764907828973 14.537853832606153 -0.349059118934892 6.000000000000000
13.385879586324458 14.573754767706401 -0.465317000373862 5.000000000000000
13.357274788217934 14.568626151373937 -0.518784296812715 5.000000000000000
13.391454771827506 14.561535318165102 -0.578345463533759 5.000000000000000
13.343849389696381 14.566194520777529 -0.632491142973878 11.000000000000000
13.380797475616424 14.561673589842741 -0.692087361892786 4.000000000000000
14.248802958971327 15.529471602278463 -0.831861718812476 15.000000000000000
13.425543790705216 14.645157248388223 -0.866777825770092 6.000000000000000
13.018168011288720 14.175881970215599 -0.879862550095059 6.000000000000000
12.789046234808950 13.895226448368742 -0.906937484270775 7.000000000000000
12.439491609641758 13.580254530584089 -0.924913709630994 6.000000000000000
12.237341439775683 13.329190824048752 -0.949889689094444 5.000000000000000
11.704584276469257 12.758333545562355 -0.983870521621385 5.000000000000000
11.456340502564684 12.462703677293881 -0.999998365610014 4.000000000000000
11.251746952656585 12.213946173357115 -1.017328998680773 4.000000000000000
10.134070511879875 11.058886071494673 -1.122214363696507 4.000000000000000
9.252162667557336 10.081603754240778 -1.208136119987424 5.000000000000000
8.461830552241080 9.210498515629876 -1.270269764000494 4.000000000000000
7.815454435915171 8.496435425051462 -1.291800593903254 5.000000000000000
2.330145597922735 2.534828395397914 -0.479254013527934 11.000000000000000
6.343364699115713 6.918990746914411 -1.440402384914725 7.000000000000000
5.979103797872710 6.514540515208309 -1.468905662976678 6.000000000000000
1.967324609035728 2.135012225298788 -0.599853154717066 36.000000000000000
36.615847720330066 39.472354375929314 3.021242306322630 37.000000000000000
36.257631988817472 39.218499648051946 2.220620944758158 2.000000000000000
16.752235938618067 18.068498623319861 0.716940135362188 0.000000000000000
36.341146201974801 39.164552721705405 1.436730170891466 0.000000000000000
36.246611070541306 39.220616499500601 1.282197423940708 21.000000000000000
36.330320955217218 39.196782661110909 1.125748705728615 5.000000000000000
16.967769024960297 18.337606700350452 0.503638189730354 1.000000000000000
14.657117653207642 15.882370553198562 0.316255911141861 0.000000000000000
14.109250040922740 15.244637412970921 0.144871254395502 0.000000000000000
13.940565184428078 15.024937985488080 0.089311892823396 0.000000000000000
13.765868604229402 14.899223649499241 0.035955278744368 1.000000000000000
13.641244319447212 14.725597943490175 -0.017574995279929 1.000000000000000
13.544509870514226 14.680027265935045 -0.071477541601995 2.000000000000000
13.499548869985864 14.590103818295159 -0.127000443562354 5.000000000000000
13.524103953348552 14.640476710947752 -0.183996114398475 11.000000000000000
13.470429236894519 14.541895534263602 -0.239037242845323 4.000000000000000
13.420671052109336 14.544388183592798 -0.293892227785229 5.000000000000000
13.450078380520869 14.531925476435465 -0.352238159205298 4.000000000000000
13.369747641595730 14.502657259267277 -0.404122374117493 5.000000000000000
13.445626069148132 14.538939539104437 -0.466811561995177 4.000000000000000
13.414174438489120 14.531037489091357 -0.520111245942819 7.000000000000000
13.459426022681548 14.535316622878106 -0.580610055632996 4.000000000000000
13.422852526050399 14.551716886919465 -0.635778987755897 5.000000000000000
13.445998104537082 14.532626576425251 -0.694266689179112 3.000000000000000
13.460570431120905 14.505250478767717 -0.749645031080242 0.000000000000000
13.449533834873295 14.572771863698396 -0.864921331484239 7.000000000000000
13.095815870224563 14.162447603375185 -0.883779996320313 7.000000000000000
12.826994447438960 13.842369526704161 -0.906675855447039 7.000000000000000
12.481898085495374 13.534355278007698 -0.925235143869782 6.000000000000000
12.270580128350558 13.275391365357567 -0.949199411338592 6.000000000000000
11.738548487381854 12.709280142578525 -0.983413390458612 6.000000000000000
11.489275327853312 12.414533007883517 -0.999492166758994 5.000000000000000
11.289362469750479 12.172218076622269 -1.017531346305379 3.000000000000000
10.170432073035085 11.023923752983709 -1.122735332187772 4.000000000000000
9.296203447005526 10.061072987112755 -1.210673268377499 4.000000000000000
8.491741132326311 9.181383047249909 -1.270704315862238 4.000000000000000
7.856765676859184 8.483593936340487 -1.295411087621682 5.000000000000000
2.328083090467305 2.519826672309697 -0.475604107656279 11.000000000000000
6.368046511737951 6.900042046281921 -1.441581249263264 7.000000000000000
6.002371701874040 6.496845885125487 -1.470130944315188 5.000000000000000
1.975441732171591 2.130849615994715 -0.601599507787518 35.000000000000000
36.869587665615562 39.469523244915990 3.027431494753950 36.000000000000000
36.920932456820871 39.580826759657484 1.764568376989893 1.000000000000000
20.863386157653675 22.347927977316811 0.945455017505838 0.000000000000000
36.445291507295963 39.006024929474272 1.434081603390215 0.000000000000000
31.206323507173405 33.611648052089620 1.170444852121932 1.000000000000000
14.843826943313996 15.896868817167398 0.502804614932653 1.000000000000000
14.759352477550935 15.869428532492023 0.440344901546626 0.000000000000000
14.210200246674981 15.222221199578712 0.201849884946682 0.000000000000000
14.137999899279018 15.172775156917876 0.144718535855685 0.000000000000000
13.951819652261118 14.936474425633243 0.089768060694695 1.000000000000000
13.801782730150016 14.837178785505877 0.035723850229127 1.000000000000000
13.682105273454289 14.669754186685367 -0.017955211161271 2.000000000000000
13.590791865268663 14.630260661298635 -0.072055724077214 3.000000000000000
13.551078914885602 14.546244124629084 -0.127826320677986 18.000000000000000
13.536852328736753 14.556297461554461 -0.182841139296350 25.000000000000000
13.535656030618311 14.512483852795530 -0.240659118085915 5.000000000000000
13.494206503418591 14.523808038275263 -0.296078993232858 4.000000000000000
13.515270577202859 14.502590636990604 -0.353999405540616 4.000000000000000
13.456996740413969 14.496643704434717 -0.407463585901501 4.000000000000000
13.521952243072766 14.521113107743435 -0.469519780264873 4.000000000000000
13.473747292890668 14.496093495210008 -0.521654893066631 5.000000000000000
13.532933100039381 14.514535776864314 -0.583329622043384 3.000000000000000
13.490821658149386 14.525365129525216 -0.638126453344338 4.000000000000000
13.527817271370308 14.520505942721819 -0.697941813302212 2.000000000000000
13.489813886246599 14.517607492488505 -0.864764749496274 7.000000000000000
13.076376073844360 14.048369767771824 -0.877367179428644 8.000000000000000
12.861948580252568 13.786550725323551 -0.906109113896950 6.000000000000000
12.524133269783993 13.488317351775272 -0.925558883833909 6.000000000000000
12.311918683378273 13.230085819858804 -0.949500820830310 6.000000000000000
11.763978705201207 12.651561861872999 -0.981897525063758 5.000000000000000
11.510887199155945 12.354871023326019 -0.997525659426658 4.000000000000000
11.324037447716965 12.127522221659106 -1.017358861322316 4.000000000000000
10.215005553402523 10.997359513922255 -1.124597699189734 4.000000000000000
9.326297503077159 10.026212449942225 -1.210635598982764 4.000000000000000
8.524334143421468 9.154962891285503 -1.271725595416301 4.000000000000000
7.886927879660525 8.459390304656576 -1.296456538236525 5.000000000000000
2.337612777234113 2.514586120252995 -0.476977297623343 10.000000000000000
6.384339141183535 6.872749370656501 -1.440199399226592 6.000000000000000
6.025586831580235 6.479060710776017 -1.471357664434902 5.000000000000000
1.972076104569552 2.117666597446660 -0.596755182161607 39.000000000000000
37.120995013664576 39.462496523860644 3.033412996527575 36.000000000000000
36.996342280641151 39.573361680545830 2.398956825753192 2.000000000000000
37.040301035026424 39.434824798207778 1.762100207593341 21.000000000000000
20.953058268321989 22.289836111305473 0.944666535931277 1.000000000000000
20.864628090021263 22.284449810938931 0.855692386641774 0.000000000000000
31.318624359271229 33.500105016429707 1.168773827097112 3.000000000000000
14.927815276451474 15.876943900112920 0.502024426950126 2.000000000000000
14.798620918456699 15.803936517853050 0.439648954065931 0.000000000000000
14.496236854576948 15.504869231024397 0.318266273288386 0.000000000000000
14.280710286722917 15.193054386366086 0.200694993188910 0.000000000000000
14.124561856936385 15.057906061781054 0.145645076902459 0.000000000000000
14.015714537489988 14.902465591554208 0.088628183613016 0.000000000000000
13.823488885958835 14.760725023394993 0.035969507662564 1.000000000000000
13.728324097396991 14.619521657381906 -0.018552630376900 4.000000000000000
13.650816837253149 14.594668314393648 -0.073232506769993 3.000000000000000
13.644311180473146 14.545149309683207 -0.130622970970890 6.000000000000000
13.568695544783852 14.492242010971900 -0.182683600608510 255.000000000000000
13.603630967264147 14.485646137341753 -0.242440261426970 6.000000000000000
13.562185218359113 14.497152450257911 -0.297938580670866 4.000000000000000
13.594368051907491 14.487275257188724 -0.356656277308789 3.000000000000000
13.533229759073608 14.478713481910223 -0.410053092596060 4.000000000000000
13.640122054007346 14.545853978531746 -0.475260134990244 2.000000000000000
13.558309691573744 14.486658020851948 -0.525121259977858 4.000000000000000
13.648297292378235 14.536283305711049 -0.589433183660556 2.000000000000000
13.589379801970855 14.530204814007387 -0.643082743815776 3.000000000000000
13.648723657111303 14.548005894608856 -0.705105048219012 3.000000000000000
13.670232336879813 14.624758315847174 -0.765420589612951 2.000000000000000
13.518741217490186 14.450885068767320 -0.863476451941571 7.000000000000000
13.131510337605903 14.011685124893795 -0.878927642121023 8.000000000000000
12.888298570161203 13.722095658250009 -0.904622925316138 6.000000000000000
12.557848486864723 13.433574946830927 -0.924928262027583 6.000000000000000
12.341943561245920 13.173253128593824 -0.948483551955380 5.000000000000000
11.800296551296849 12.605206974549763 -0.981796649771252 5.000000000000000
11.543383598580494 12.306569543122368 -0.997021901092141 4.000000000000000
11.350152883841153 12.074214332522910 -1.016057156029441 4.000000000000000
10.245571882593609 10.956449786798633 -1.124230195501135 4.000000000000000
9.350675743848937 9.985611492911026 -1.209568115264189 5.000000000000000
8.548457955570729 9.120026102950927 -1.270993643208325 4.000000000000000
7.919811035683777 8.437857558790963 -1.298145996535464 5.000000000000000
2.339031702331437 2.489504530852601 -0.472188625670594 10.000000000000000
6.417235812157496 6.861856640241721 -1.443943641545091 5.000000000000000
6.043177302261339 6.455744088274112 -1.470746993882111 5.000000000000000
1.965134951409154 2.091426403579887 -0.587064715648860 39.000000000000000
37.386635577431960 39.468600676258873 3.040312678755774 36.000000000000000
37.063208922839770 39.372187675554827 2.393528927768619 18.000000000000000
21.013596318915241 22.265995128895447 1.032787869291144 0.000000000000000
21.009148968601167 22.196951878059672 0.943179848952320 0.000000000000000
37.059609440017347 39.382472482174776 1.444339704419306 21.000000000000000
14.927801071621804 15.770967419076804 0.501280963279497 0.000000000000000
14.879539046925000 15.781271248135660 0.438753271771192 0.000000000000000
14.155296965368640 14.989001309390744 0.145421113437274 0.000000000000000
14.012236536643629 14.799756663142482 0.089504862640863 0.000000000000000
13.856018467491522 14.695719512461803 0.035831775831867 1.000000000000000
13.799574924198978 14.594804737944148 -0.020122552024875 4.000000000000000
13.713552052996269 14.561697824048657 -0.074532571346474 3.000000000000000
13.718100523779031 14.523597182079573 -0.132507752857596 6.000000000000000
13.622641964406855 14.450978234003923 -0.183669186863784 11.000000000000000
13.693996877927029 14.481303344686122 -0.245465417731104 6.000000000000000
13.641324100092890 14.481614951290243 -0.300468781618483 5.000000000000000
13.715517928723555 14.514339825381022 -0.361994619365622 2.000000000000000
13.617879283433648 14.469001532437364 -0.413217561520538 3.000000000000000
13.725059878110903 14.535711319857789 -0.478587615611659 5.000000000000000
13.654148979851865 14.488219290963400 -0.529447540113186 3.000000000000000
13.738779063897354 14.531757993546059 -0.593518034923119 10.000000000000000
13.688133681003814 14.534526844049207 -0.648046963235805 2.000000000000000
13.725237729881561 14.529238833883166 -0.708297101885243 4.000000000000000
13.691155516292310 14.548889545294390 -0.763522999490765 2.000000000000000
13.752888944404953 14.569218603766441 -0.827115222964268 3.000000000000000
13.566910035192320 14.404088460797890 -0.864173863080426 10.000000000000000
12.931147778816653 13.674663100167606 -0.904980226635403 6.000000000000000
12.602502653470106 13.390132108411226 -0.925575214073747 5.000000000000000
12.380106877521218 13.124888708779778 -0.948458464772733 5.000000000000000
11.828039335375035 12.550234454173935 -0.980636418801972 5.000000000000000
11.567278050111211 12.249687087344338 -0.995422418089376 4.000000000000000
11.392856562192060 12.037816130300534 -1.017019164793780 4.000000000000000
10.281572543237722 10.921087228261072 -1.124757644551947 4.000000000000000
9.391693256615360 9.961812685553948 -1.211596837436088 5.000000000000000
8.583658536486585 9.096192378007398 -1.272603635606272 5.000000000000000
7.947022792456823 8.410638230072674 -1.298553046197610 5.000000000000000
2.342592321477614 2.479395106188347 -0.471050249902044 11.000000000000000
6.438946707946036 6.839891432676260 -1.444272791156853 5.000000000000000
6.069059679262892 6.440499410585415 -1.472896033980053 6.000000000000000
1.964452142422873 2.080588473202018 -0.583866809700021 39.000000000000000
32.995603455076640 34.646345110863166 3.571875363549323 12.000000000000000
36.611014940888722 38.632152729903595 2.361844034199020 37.000000000000000
21.091888117035662 22.195845520058878 1.031770748261063 1.000000000000000
20.961407698513806 21.998113980797598 0.939560659888731 0.000000000000000
36.626635762115043 38.662244833479654 1.428143824655715 23.000000000000000
15.039209632311488 15.859035577427210 0.563455381948630 0.000000000000000
14.915982497223983 15.653795735504026 0.500546153323923 0.000000000000000
14.890344036264130 15.686945792624510 0.438185559542979 0.000000000000000
14.061681615001856 14.751233833533281 0.088781610017703 0.000000000000000
13.879836950175832 14.622119473560009 0.035980949907040 2.000000000000000
13.873628811212155 14.572609244978867 -0.021805470111880 3.000000000000000
13.784638636147111 14.537005222066782 -0.076195278771392 3.000000000000000
13.805949339467519 14.515918912288907 -0.135055334914222 5.000000000000000
13.741057307373968 14.474935426427059 -0.187944987540976 6.000000000000000
13.781684003233893 14.473660052209826 -0.248342620135738 5.000000000000000
13.748575766985672 14.494151898943773 -0.304670912279064 3.000000000000000
13.806109253332961 14.509475709604171 -0.365379743847255 2.000000000000000
13.744672987970029 14.501570190322454 -0.419237597606010 2.000000000000000
13.852194423712616 14.567782061197214 -0.484952519544715 6.000000000000000
13.755771656159423 14.494965388870444 -0.534208510346132 7.000000000000000
13.851865735415551 14.549477787337178 -0.599414332077831 9.000000000000000
13.792683874815534 14.544014475861132 -0.653493293521350 8.000000000000000
13.852300469451844 14.561220573138208 -0.715976645321081 5.000000000000000
13.762113804702210 14.524246941373573 -0.766311323781877 3.000000000000000
13.586894148915228 14.328721435565065 -0.862036858549484 6.000000000000000
13.213424358432446 13.909295077650718 -0.879101730238504 7.000000000000000
12.962584068405569 13.615754081867035 -0.904110780384410 6.000000000000000
12.618978970637485 13.318177796388085 -0.923032930418029 5.000000000000000
12.418079562678191 13.076410743932001 -0.948435362064747 5.000000000000000
11.852733254798910 12.492389126659209 -0.979123232657228 6.000000000000000
11.604968021330770 12.206893005133335 -0.995652921134399 4.000000000000000
11.427000489362536 11.992819720078497 -1.016851833380376 4.000000000000000
10.317447348201442 10.885610527193482 -1.125287134943595 4.000000000000000
9.427031471612896 9.932244464063039 -1.212596297019886 4.000000000000000
8.610351036009483 9.063870699552648 -1.272459839901433 5.000000000000000
7.976955168606340 8.386090127539624 -1.299604111984264 5.000000000000000
2.349059033215230 2.471673388049958 -0.471168449242434 10.000000000000000
6.460580264865059 6.817842987593516 -1.444603239221976 5.000000000000000
6.097710033221490 6.427853301844892 -1.475966500449984 6.000000000000000
1.966614410681352 2.071980848384553 -0.582317017997004 38.000000000000000
33.000181338384884 34.414231524710502 3.559593817682634 14.000000000000000
36.768633831081075 38.530458742036778 2.361210496441053 21.000000000000000
21.035477154206681 21.988415930110833 1.027426890713619 1.000000000000000
20.880615394503153 21.851978938611754 0.849018063836516 0.000000000000000
15.120535629067991 15.835364967427623 0.562780498888145 1.000000000000000
14.288902017309784 14.899553916834570 0.201581934440123 0.000000000000000
14.500675505742624 15.137486527499277 0.137654884595962 0.000000000000000
14.074242263374337 14.665728096621184 0.089153976123446 1.000000000000000
13.934305307482072 14.579721522923165 0.035072269570309 4.000000000000000
13.939227219062182 14.541568379213079 -0.023169700836969 3.000000000000000
13.855716878885888 14.511986332095532 -0.077863124185499 4.000000000000000
13.885449641304756 14.499294147695910 -0.137214950447677 5.000000000000000
13.823162026808117 14.461378957641660 -0.190371246927633 6.000000000000000
13.979539118003721 14.575962469133561 -0.257278889533322 5.000000000000000
13.870156596400145 14.520276988712755 -0.309715776204939 2.000000000000000
13.908109752402815 14.515475641316275 -0.369486594224931 4.000000000000000
13.852162727184270 14.513562735328740 -0.423938020516693 5.000000000000000
13.931828586086828 14.550979356852928 -0.487890931741960 11.000000000000000
13.885760299260097 14.529502818408737 -0.541114112215750 7.000000000000000
13.925771937091850 14.526976128462273 -0.602160610068165 8.000000000000000
13.886212235246992 14.541593817993441 -0.657999651371374 12.000000000000000
13.951585312505673 14.564189769767111 -0.721175793236588 8.000000000000000
13.872404738596179 14.538965915242681 -0.772751372919965 5.000000000000000
13.934396859722396 14.558726562078064 -0.836713039404603 3.000000000000000
13.626197595208994 14.273195555427847 -0.861886819328719 5.000000000000000
12.999402995616503 13.562440635389173 -0.903857266776070 5.000000000000000
12.666038851413347 13.277354445407113 -0.924002927443020 6.000000000000000
12.464309749655952 13.036285317903804 -0.949406135357162 5.000000000000000
11.899702152002543 12.457053223292533 -0.980442867986250 5.000000000000000
11.625572968463018 12.147099056372646 -0.993689361976314 4.000000000000000
11.460965371110799 11.947722469673607 -1.016686281236069 4.000000000000000
10.356015517608428 10.852811879178912 -1.126265685633581 4.000000000000000
9.453811345813959 9.894180610517161 -1.212049399965590 5.000000000000000
8.642567266256314 9.037009319916976 -1.273488512277401 5.000000000000000
8.012463911768057 8.366941556063047 -1.301942147349151 5.000000000000000
2.346619897574255 2.456790283042495 -0.467517026009207 11.000000000000000
6.487765244148202 6.801147078766026 -1.446644225503133 5.000000000000000
6.117903005237839 6.407005623742642 -1.476279381609498 5.000000000000000
1.964994673322628 2.050390780769074 -0.575920039125264 40.000000000000000
33.093001273039555 34.273672346953234 3.555565662269339 30.000000000000000
20.975060389773382 21.778798681880858 1.023023099837363 1.000000000000000
21.514774840405540 22.281407646458451 0.766026958299401 0.000000000000000
21.473113778388679 22.325787627709321 0.677215255457394 0.000000000000000
14.931457674683228 15.474178439869181 0.375018557944229 0.000000000000000
15.226602300205530 15.782201215912551 0.245692231538534 0.000000000000000
14.089208824194806 14.583127878316986 0.089442597206740 2.000000000000000
14.028235862954761 14.576709611586235 0.032812418779269 4.000000000000000
14.016102498028310 14.521532714297596 -0.024971286865294 4.000000000000000
13.938087958161317 14.497955743793188 -0.080015164190149 5.000000000000000
13.973487328259276 14.490748658061992 -0.139775948678273 4.000000000000000
13.908166271397588 14.450244570125498 -0.192946900603260 5.000000000000000
14.198095040058785 14.696796095745373 -0.267320748236597 5.000000000000000
13.955349626661114 14.508994088123504 -0.312601346424699 2.000000000000000
13.990511675442228 14.501181099717215 -0.372350130919251 5.000000000000000
13.940137450825082 14.505183072307190 -0.427315770591296 6.000000000000000
14.053913829543491 14.576125732609725 -0.493870581270176 8.000000000000000
13.956819461498114 14.504011490573571 -0.543541639765306 8.000000000000000
14.042121329520082 14.546409095856944 -0.608299716856648 8.000000000000000
13.968597560791583 14.527404562833688 -0.661564185098593 7.000000000000000
14.036925682319868 14.552537732530961 -0.725136564684123 9.000000000000000
13.968862317614736 14.538958916752588 -0.777897545567572 13.000000000000000
14.115688508129887 14.643029448938581 -0.850250057122094 10.000000000000000
13.665278428118766 14.217564179300446 -0.861738561374560 7.000000000000000
13.033175333670787 13.506216030885884 -0.903297951099501 6.000000000000000
12.710144476039366 13.233541760366727 -0.924656216686422 5.000000000000000
12.484979563216823 12.970682042467541 -0.947402457681576 5.000000000000000
11.921122572447697 12.396267036260280 -0.978578010039958 5.000000000000000
11.665713441653004 12.106924488858368 -0.994289235942614 4.000000000000000
11.494751564635481 11.902526735469461 -1.016522429584004 3.000000000000000
10.400132456816104 10.825454826304952 -1.128140920430333 4.000000000000000
9.491762105158855 9.867155297041837 -1.213569031843399 4.000000000000000
8.671865562638141 9.007264984577308 -1.273933455132440 5.000000000000000
8.039424036265739 8.339391780647805 -1.302354544299322 5.000000000000000
2.356388436455561 2.438938099280429 -0.466497423243588 11.000000000000000
6.536344935482899 6.762030691322066 -1.449021781338069 5.000000000000000
6.138023143331479 6.386087815722758 -1.476593374045736 5.000000000000000
1.972870530018128 2.046167521982526 -0.577667617305329 15.000000000000000
32.991647647716952 33.936966426939506 3.533757671846646 12.000000000000000
20.947292216426966 21.603882629551521 1.019456238953695 2.000000000000000
20.856598562293289 21.450496954126496 0.929667944240952 0.000000000000000
21.507841888288208 22.188884605348171 0.854577079074639 0.000000000000000
21.655289282686034 22.271808247477871 0.765686280737129 0.000000000000000
14.727099974328063 15.212756763335271 0.437428652012087 0.000000000000000
15.113869980754624 15.552055335773368 0.373070287797631 0.000000000000000
15.183044871132449 15.633576890736137 0.246576910275462 0.000000000000000
14.243889130567977 14.682039182589101 0.145316942815866 0.000000000000000
14.163487694291227 14.559643398328141 0.087951372952237 5.000000000000000
14.110959305809180 14.561940453220327 0.030930674058324 4.000000000000000
14.110053200177109 14.518007923220996 -0.027428756051074 4.000000000000000
14.020526562385342 14.483518935523655 -0.082173549323447 4.000000000000000
14.075827272647006 14.495838101144425 -0.143003311239595 4.000000000000000
14.007447222336216 14.452760056613304 -0.196245969682900 5.000000000000000
14.258523593590093 14.658869619030089 -0.268676418921873 6.000000000000000
14.137036336705719 14.593038703790988 -0.321172895510997 4.000000000000000
14.087174539891514 14.500538606098303 -0.376114838399653 2.000000000000000
14.031050656509088 14.499174332196631 -0.430890882792409 7.000000000000000
14.102585650587320 14.527458993930448 -0.494595876450350 6.000000000000000
14.036371853047017 14.486633541703203 -0.546616108967299 15.000000000000000
14.124706514864901 14.531493144040070 -0.611736992300274 27.000000000000000
14.093537558484902 14.555025132259328 -0.668696821018895 9.000000000000000
14.105334223316927 14.523600443636266 -0.727607419558552 4.000000000000000
14.059824629322543 14.532816471482302 -0.782530020017480 6.000000000000000
14.226903134302935 14.655979091038510 -0.856981803073341 31.000000000000000
13.820228905689417 14.277071024406361 -0.873242597275259 37.000000000000000
13.080902374235565 13.463921132788123 -0.904278754618030 6.000000000000000
12.734271080907327 13.169927744369335 -0.923074779809795 6.000000000000000
12.522352933244456 12.921891340285033 -0.947384660268012 5.000000000000000
11.950772133134336 12.343862635292297 -0.977776420946117 5.000000000000000
11.708552357355332 12.069402883809655 -0.995257766577195 4.000000000000000
11.497084978519707 11.826566485305388 -1.012205378923467 5.000000000000000
10.432833180425414 10.786782261553245 -1.128229843750876 4.000000000000000
9.521113714956304 9.831673164603679 -1.213541783966199 5.000000000000000
8.701058608539642 8.977410023157191 -1.274380170039161 5.000000000000000
8.069132590788106 8.314491734270739 -1.303411324426690 5.000000000000000
2.359726364615221 2.428808310219913 -0.465359437360264 11.000000000000000
6.563387325772595 6.745011757747517 -1.451067965486673 6.000000000000000
6.166563246728756 6.373112989301373 -1.479669133031130 5.000000000000000
1.953352075822943 2.011720806420063 -0.561374575556896 1.000000000000000
19.653509425146222 20.127942116338332 4.746990170699774 0.000000000000000
14.000374757498328 14.340784804751422 1.075474930498999 1.000000000000000
20.946866328048525 21.457665978482090 1.016583372574335 1.000000000000000
20.909406970615116 21.358296787739782 0.928189263274074 1.000000000000000
20.853046571046384 21.384812227335328 0.841781696466005 0.000000000000000
20.427305783769178 20.898022588363311 0.749191004290487 0.000000000000000
20.357390537713488 20.908992243819863 0.665231856878484 0.000000000000000
15.180481672016406 15.572241154208385 0.308777125561843 0.000000000000000
15.204113543182009 15.550050676474136 0.246334766851674 0.000000000000000
14.258713590534670 14.599029308475370 0.145454922465301 1.000000000000000
14.252038634083876 14.549819533137121 0.086029995368951 4.000000000000000
14.196595647187053 14.549572240840860 0.028946027478641 4.000000000000000
14.195593170579906 14.505586772281461 -0.029568245174211 4.000000000000000
14.111567171498576 14.477094045418724 -0.084698535492373 4.000000000000000
14.178369444651914 14.500381509059562 -0.146239063645002 4.000000000000000
14.095519671423775 14.443522255680932 -0.198979248080052 5.000000000000000
14.193391622638501 14.497454395350722 -0.263188616222109 5.000000000000000
14.265414497631946 14.622662033351975 -0.326584506257093 5.000000000000000
14.283716417534869 14.597459283178914 -0.386155856554662 5.000000000000000
14.113561837221928 14.484271190819847 -0.433901578559725 4.000000000000000
14.267790699141694 14.593547262979193 -0.503632222359845 4.000000000000000
14.172870926940668 14.524932697246999 -0.553978091430552 11.000000000000000
14.178869561299587 14.488179037019975 -0.612919419551826 3.000000000000000
14.150620175011458 14.514635046041324 -0.670137828680187 16.000000000000000
14.270465816767089 14.589549556811249 -0.738568739296659 1.000000000000000
14.148072669169883 14.523396789086899 -0.786908758364566 1.000000000000000
14.284362288736338 14.615112489751784 -0.858535348203118 28.000000000000000
14.009855601032955 14.369267556697544 -0.888172110619074 54.000000000000000
13.108555192571629 13.401909181478821 -0.903107203501942 6.000000000000000
12.777998377329997 13.125876815570493 -0.923732158156558 5.000000000000000
12.559534076082663 12.872996885976598 -0.947368767871384 5.000000000000000
11.994431903294290 12.305339067247406 -0.978748246286013 5.000000000000000
11.742718451356842 12.023372434826584 -0.995129517616634 4.000000000000000
11.521849468039454 11.772951455891892 -1.010909657843440 5.000000000000000
10.468233932871517 10.750778248640504 -1.128768041621409 4.000000000000000
9.556031782932065 9.801607138752694 -1.214549317542573 5.000000000000000
8.732997090699197 8.950202592780812 -1.275414552357442 5.000000000000000
8.104472651397053 8.294932382329065 -1.305756000431278 5.000000000000000
2.360027672030451 2.416350854859367 -0.462964136174310 11.000000000000000
6.584683031321308 6.722536900426863 -1.451405454254037 5.000000000000000
6.195084974103909 6.360008528220674 -1.482746929520707 5.000000000000000
1.969947066963453 2.013948902242033 -0.568070019636225 1.000000000000000
19.800485125904693 20.137539736991350 4.762923533465647 0.000000000000000
33.080636813407388 33.576107333804231 2.690877800837221 25.000000000000000
33.134445562720174 33.605722265587524 2.140073262664606 10.000000000000000
20.937150293301464 21.303264725537780 1.013508085223083 2.000000000000000
20.913456485998623 21.218196503771964 0.925742090931423 1.000000000000000
20.880047827119608 21.267300721453452 0.839980018168671 0.000000000000000
14.895984115975009 15.119544811508096 0.496889282909321 0.000000000000000
20.442367509495767 20.852382377359891 0.664287127768644 24.000000000000000
15.229791889680479 15.516832394673536 0.308030202142178 0.000000000000000
15.279059210333802 15.519758713479739 0.245153449279440 0.000000000000000
14.330318504638134 14.572015118859849 0.144133032432769 7.000000000000000
14.320647085438003 14.520004304223878 0.084697194543529 0.000000000000000
14.279457741662876 14.533978808115730 0.027051489227183 2.000000000000000
14.298381638028795 14.509489460538170 -0.032366317233524 4.000000000000000
14.217005258963061 14.484204529722149 -0.087831794844822 4.000000000000000
14.278252509728672 14.501583664042393 -0.149351068117996 4.000000000000000
14.203698220627796 14.453411724474702 -0.202724874543670 4.000000000000000
14.256061274549948 14.462255928685483 -0.264701579533559 4.000000000000000
14.211438694861853 14.472585048071892 -0.321297950098431 5.000000000000000
14.255257218565447 14.472599054012690 -0.382054429110721 4.000000000000000
14.287418204604887 14.558488260622934 -0.443020018345586 5.000000000000000
14.287959268277397 14.516205170941923 -0.502341240464512 5.000000000000000
14.215593802045460 14.470264398422714 -0.554282808302226 8.000000000000000
14.321505562600752 14.531116650016212 -0.621119616767030 5.000000000000000
14.293151422944065 14.557851359811647 -0.678714978548721 4.000000000000000
14.310580957432638 14.531751486264685 -0.738557146394495 2.000000000000000
15.062705275844991 15.324168166389466 -0.867002161810243 5.000000000000000
14.290358267663304 14.523783045844830 -0.855175571624848 25.000000000000000
14.089091397071135 14.351459554439639 -0.892025681184644 51.000000000000000
13.153078058141043 13.356550501447163 -0.903784685826441 5.000000000000000
12.804461747833203 13.064944284144818 -0.922472648324850 6.000000000000000
12.605088752063882 12.832339603312978 -0.948348472950686 5.000000000000000
12.017971441096531 12.247209732817833 -0.977240520512102 5.000000000000000
11.759547520925876 11.960606753114231 -0.992803233231128 4.000000000000000
11.560690848633303 11.733132785600372 -1.011504789705419 4.000000000000000
10.512078588857307 10.722933488385440 -1.130651053697555 4.000000000000000
9.596572269388892 9.776913886197004 -1.216592507153410 5.000000000000000
8.770575331808377 8.928340093227231 -1.277623034882506 5.000000000000000
8.134043022851436 8.269786478447323 -1.306816728550130 5.000000000000000
2.363268450097694 2.406241013861882 -0.461826053387762 10.000000000000000
6.611622652419785 6.705308194996525 -1.453455011402220 6.000000000000000
6.215036344690863 6.338820196520804 -1.483065351503669 6.000000000000000
1.958854852218020 1.986210124402925 -0.556721064611918 0.000000000000000
19.961872323319394 20.160205834832919 4.781871763258558 0.000000000000000
