# This PCD file was generated using the MATLAB® pcwrite function
# from Computer Vision Toolbox®.
# .PCD v.7 - Point Cloud Data file format
VERSION .7
FIELDS x y z intensity
SIZE 8 8 8 8
TYPE F F F F
COUNT 1 1 1 1
WIDTH 633
HEIGHT 1
VIEWPOINT 0 0 0 1 0 0 0
POINTS 633
DATA ascii
12.748330258658450 -4.034610397310381 -0.679529967609044 0.000000000000000
12.690949564768806 -3.991042915798694 -0.713719253929802 2.000000000000000
12.538877417905615 -3.962518666071055 -0.738699763520928 1.000000000000000
12.371721462005929 -3.928393988046523 -0.762870403189337 1.000000000000000
12.280437211661972 -3.873199284866608 -0.789441556670803 1.000000000000000
12.028329860116131 -3.816268090725259 -0.841505578704948 0.000000000000000
11.932882064966572 -3.760233578706156 -0.867968934228943 0.000000000000000
11.859570173382236 -3.758881250820053 -0.896837899378623 0.000000000000000
11.817155846962674 -3.740128090675121 -1.114913404018196 7.000000000000000
11.726785147378138 -3.703693757629111 -1.323524108111046 1.000000000000000
11.586654619257743 -3.646363216089533 -1.704897628156032 5.000000000000000
9.934083993450699 -3.152685887753606 -1.806441205652126 27.000000000000000
9.236153913417603 -2.923260593555050 -1.822544661995506 28.000000000000000
8.622412017728825 -2.720963582086362 -1.834205583845224 28.000000000000000
6.137723559837520 -1.950488438450108 -1.807419051403029 6.000000000000000
50.717523977046945 -16.184083858052858 4.994864287597212 31.000000000000000
51.379344016531952 -16.374635742190968 3.139658539879379 10.000000000000000
63.461469700012863 -20.311574618819456 2.180391960509113 28.000000000000000
63.523789005755653 -20.437997502946672 1.987827357598226 20.000000000000000
63.461863463989388 -20.361704781211500 1.785524771730171 24.000000000000000
63.444097747992004 -20.216205382768734 1.591855091159840 21.000000000000000
63.444251153770018 -20.321408569909501 1.391884477186296 26.000000000000000
63.462014605141214 -20.294277991753518 0.998965258204927 28.000000000000000
43.087589464009461 -13.787217930245070 0.569855950719547 0.000000000000000
42.718456664443814 -13.737081322492685 0.436493522390779 0.000000000000000
42.709952348783474 -13.642329846224101 0.305260428812494 1.000000000000000
42.214807517897214 -13.550616168220820 0.175458481107656 1.000000000000000
42.402534675666836 -13.522376304936117 0.044658101781291 1.000000000000000
42.130835212797606 -13.504649422953307 -0.085890412635877 3.000000000000000
42.349473852123801 -13.529104369521811 -0.219709980344028 7.000000000000000
42.175685037062856 -13.543378445543226 -0.349817954320863 17.000000000000000
42.202565602659739 -13.462013433660246 -0.478764184784595 18.000000000000000
42.115102423260254 -13.505643101675261 -0.610539323269958 5.000000000000000
13.546820002391241 -4.332305612332419 -0.243359322932397 0.000000000000000
13.440183994264853 -4.321359657902590 -0.281438795717107 0.000000000000000
36.117515687493359 -11.579544149341871 -0.789550300508834 15.000000000000000
33.420769718916901 -10.658917341521253 -0.901411522792288 1.000000000000000
15.041798399872279 -4.822886941188287 -0.512479564840856 1.000000000000000
15.050127708708068 -4.798184888879405 -0.560245648158928 2.000000000000000
15.033583129853362 -4.811094479768265 -0.607057673928917 3.000000000000000
15.012123762521741 -4.805869449510617 -0.699599724642920 3.000000000000000
15.008595465436308 -4.776945857833681 -0.745783456574727 2.000000000000000
12.746962082645858 -4.083909909967637 -0.681587832184464 0.000000000000000
12.652347409081569 -4.026446004044111 -0.712213195997927 1.000000000000000
12.504153201991635 -3.998736603234605 -0.737487346259051 1.000000000000000
12.355833775543550 -3.970886780887653 -0.763508729031022 1.000000000000000
12.264765709793570 -3.915378652662888 -0.790073311759955 1.000000000000000
12.012757855482207 -3.857563333636193 -0.842130574628408 0.000000000000000
11.891414959203074 -3.791557897738436 -0.865572099243113 0.000000000000000
11.862883261583715 -3.806495649278688 -0.899661608934302 0.000000000000000
11.798164980731165 -3.779309747904811 -1.115012830975976 6.000000000000000
11.693073976277427 -3.737065350409054 -1.321228251289994 1.000000000000000
11.567989656795168 -3.684750000596061 -1.704790235940127 5.000000000000000
9.906224751009615 -3.181107558647511 -1.803546338317761 29.000000000000000
9.209171295495132 -2.949218416158089 -1.819348883008952 26.000000000000000
8.603441834557829 -2.747565229483683 -1.832684172497401 25.000000000000000
6.121703025131827 -1.968306486355829 -1.805102764070445 7.000000000000000
0.349720229202136 -0.112586198698132 0.062852623196138 0.000000000000000
50.636231820114624 -16.352799529515607 4.990222021681585 32.000000000000000
52.134727534735632 -16.825311713632807 3.178745609437241 37.000000000000000
56.632681993546583 -18.407321508416508 2.177569510278542 10.000000000000000
63.460365370837579 -20.556306303437246 2.179008441896317 26.000000000000000
56.589542482789952 -18.364181412246772 1.824753980380260 12.000000000000000
63.456661146950374 -20.605252081915829 1.783583998857227 22.000000000000000
56.844217189399778 -18.490936378874927 1.475324858031852 2.000000000000000
63.443029560326750 -20.566129660499179 1.389590153928790 24.000000000000000
56.796872817691963 -18.446726005634616 1.121930177915298 7.000000000000000
63.464728709160291 -20.540261496561946 0.996267513680761 27.000000000000000
42.696043403989499 -13.821673830897296 0.567128135230896 0.000000000000000
42.278025014982433 -13.753052811092580 0.434934254906625 0.000000000000000
42.296131841691441 -13.668032970890778 0.304781680633555 1.000000000000000
41.854551010612361 -13.592039237823514 0.175728585383254 1.000000000000000
41.947401959060265 -13.533228907915515 0.046913917068501 1.000000000000000
41.664621139152516 -13.510153299222772 -0.082171704558704 0.000000000000000
41.917124888364668 -13.547017346370602 -0.215322885209079 1.000000000000000
41.834408261853625 -13.590960542878761 -0.346066964340129 1.000000000000000
41.846244058279794 -13.505205998511315 -0.473760975630700 2.000000000000000
41.993661599897372 -13.627549913888018 -0.610806720940919 3.000000000000000
13.529468841112754 -4.378892427351026 -0.244063979662112 0.000000000000000
13.407909782039862 -4.362036676702679 -0.281255146949839 0.000000000000000
36.218497744810804 -11.753916918149606 -0.796610951579185 18.000000000000000
32.953688948323290 -10.629333668103577 -0.885084198927930 14.000000000000000
15.070703626427717 -4.861795490279540 -0.469368556867276 1.000000000000000
15.037820345475835 -4.880141439952304 -0.514274365452621 1.000000000000000
15.053777883905825 -4.858146001227333 -0.562619604004270 2.000000000000000
15.029533877568950 -4.868336052593442 -0.608954024192308 3.000000000000000
15.019010111615838 -4.836678047079388 -0.655023330834462 3.000000000000000
15.015631961706681 -4.865746641716726 -0.702188675416949 3.000000000000000
15.008489352802552 -4.835407797839139 -0.748126994457517 2.000000000000000
12.726724402796721 -4.126325060332427 -0.681901473514598 0.000000000000000
12.598700245598518 -4.056118692724191 -0.709260815974447 1.000000000000000
12.469324640285119 -4.034768190256102 -0.736272659139038 2.000000000000000
12.317409375878782 -4.004999697382303 -0.761840313227255 1.000000000000000
12.237746630429317 -3.953352295454515 -0.789518227355155 1.000000000000000
12.000764207358280 -3.900199594452445 -0.843174250657973 0.000000000000000
11.890855504863751 -3.837936627534575 -0.867912407101964 0.000000000000000
11.798992941894163 -3.829082866508521 -0.894525724938339 0.000000000000000
11.838485529450379 -3.840664171561983 -1.123299079079039 82.000000000000000
11.677801838908760 -3.777191561528994 -1.321833234175459 1.000000000000000
11.541817269008044 -3.720300995990854 -1.703269393069117 5.000000000000000
9.889226416970502 -3.213588946266206 -1.803206119207693 30.000000000000000
9.185744293843834 -2.976443520738094 -1.817069603358136 30.000000000000000
8.584386378951102 -2.774076209236036 -1.831161644763918 27.000000000000000
6.105628290596059 -1.986050349956791 -1.802785422765125 7.000000000000000
52.452292494344711 -17.134407830049156 3.195437165732012 47.000000000000000
54.023882756322806 -17.650419588240680 2.267171889864303 1.000000000000000
56.663583716230093 -18.512800964656456 1.998716486712238 16.000000000000000
56.114081718351656 -18.422511960606492 1.812313652501369 21.000000000000000
56.521025701139664 -18.506677144214351 1.642447676953542 6.000000000000000
56.375880001990993 -18.552249484787573 1.465536267467606 15.000000000000000
56.637980264740811 -18.516695071690201 1.292891750397313 14.000000000000000
56.237680517849633 -18.477330003301006 1.113669826805392 20.000000000000000
56.593444359767936 -18.473537160405172 0.940852051043885 18.000000000000000
42.270719015638306 -13.841933947662987 0.564391334606031 1.000000000000000
41.943936872655996 -13.802491336890320 0.433230821859158 1.000000000000000
41.947015934251368 -13.712967606892164 0.304030744074237 1.000000000000000
41.490732646234775 -13.629819857572031 0.176062676730936 6.000000000000000
41.647965846491537 -13.593891417257737 0.047500611164943 1.000000000000000
41.422181090235739 -13.588879492079798 -0.081580232538978 1.000000000000000
41.549515415410745 -13.584045761189529 -0.212008077945823 0.000000000000000
41.334426042170172 -13.581858717312954 -0.339031300049268 41.000000000000000
41.580987185558506 -13.577029948374488 -0.470861058199902 4.000000000000000
42.144275842277622 -13.841995514566861 -0.618338610371096 11.000000000000000
13.519440118466280 -4.428213776578957 -0.245184941665467 0.000000000000000
13.416660608495031 -4.417941306929841 -0.283494964996930 0.000000000000000
36.439626240546261 -11.970863555307339 -0.808050375601569 17.000000000000000
34.261449891193315 -11.279830599549022 -0.839614200415223 8.000000000000000
15.037368964505225 -4.938812647850305 -0.516325270867943 0.000000000000000
15.060937357917627 -4.919563350667957 -0.565262719551332 2.000000000000000
15.029007881781347 -4.926981812452404 -0.611130110493739 3.000000000000000
15.007389098572574 -4.891147787917419 -0.656384293677787 3.000000000000000
15.015156364463078 -4.924336654230245 -0.704477598007470 3.000000000000000
14.996914181451013 -4.889833841256255 -0.749530411915523 2.000000000000000
12.635469023097597 -4.142027493232440 -0.675579423830064 0.000000000000000
12.574853600181813 -4.096615761242241 -0.709192503372656 1.000000000000000
12.445580614836807 -4.074803031417460 -0.736173003790524 1.000000000000000
12.293798104759173 -4.044495985323671 -0.761707331860932 1.000000000000000
12.214334880674199 -3.992590827392384 -0.789357189276261 1.000000000000000
11.966297980672634 -3.934346005148839 -0.841701919261984 0.000000000000000
11.878949318282585 -3.880154023282991 -0.868960276213727 0.000000000000000
11.809443214431822 -3.879425643697481 -0.898233823478688 0.000000000000000
11.819148574166375 -3.879883953853657 -1.123399854924745 5.000000000000000
11.662387860764820 -3.817252943354923 -1.322437496527046 2.000000000000000
11.522899445002405 -3.758497332967380 -1.703159793330186 5.000000000000000
9.864832336280458 -3.243168217101243 -1.801160258437363 30.000000000000000
9.173106326173276 -3.007817950277278 -1.817544349938596 28.000000000000000
8.561641796778931 -2.799068266441552 -1.828654603026698 27.000000000000000
6.099918585284962 -2.008165656518656 -1.804416149614052 7.000000000000000
0.390043741463993 -0.129450722912019 0.050865447171487 0.000000000000000
0.439292607141719 -0.146029365160885 0.037211681982258 0.000000000000000
53.963776343444714 -17.839520736290964 2.264485438209320 8.000000000000000
56.123561201916061 -18.548620379253137 1.983335066903448 21.000000000000000
55.865919780711778 -18.555453506697660 1.805193742657546 30.000000000000000
56.071845722028428 -18.572513597732041 1.631827329242544 21.000000000000000
55.987239927743865 -18.637823004053693 1.457139764052808 29.000000000000000
56.094034549015653 -18.550897145899938 1.283343991858777 22.000000000000000
55.913560350899871 -18.584670361485649 1.107984455055305 51.000000000000000
56.079836517074135 -18.518202133787717 0.934514337672577 22.000000000000000
42.167126114184640 -13.970447642771994 0.562114076148571 0.000000000000000
41.776283788164434 -13.907488013469340 0.431256682018586 1.000000000000000
41.658603396439439 -13.776499390261840 0.303016090331149 1.000000000000000
41.387947820305357 -13.755569536795512 0.174334970678629 23.000000000000000
41.431823235021525 -13.681258487716285 0.047191414783691 23.000000000000000
41.285547236106112 -13.702664879178549 -0.082478143320210 3.000000000000000
41.284231215891204 -13.653931325572273 -0.210432781727162 32.000000000000000
41.250648944289566 -13.713594382450083 -0.340487412744988 255.000000000000000
41.315732389025541 -13.647174520846370 -0.467937059667229 114.000000000000000
42.199427945747139 -14.024968302061282 -0.623359547697052 6.000000000000000
13.516704652841351 -4.480338427544922 -0.246723230609360 0.000000000000000
39.099777570121994 -12.936493649960852 -0.783589767509245 15.000000000000000
36.546438275501586 -12.149993047850522 -0.815418545364111 18.000000000000000
34.291399546801443 -11.423806825315069 -0.844224465412492 9.000000000000000
13.249014299738201 -4.386759754495436 -0.398335696754866 0.000000000000000
15.029199563320404 -4.994769641376806 -0.517866933088601 0.000000000000000
14.030021867581457 -4.669536972592546 -0.540973066513330 1.000000000000000
15.020770842303701 -4.982919110496098 -0.612749842188122 2.000000000000000
13.990305372671299 -4.657788058009110 -0.626168780104823 1.000000000000000
13.968078421230986 -4.623900407962836 -0.667796593746529 0.000000000000000
13.796995068328338 -4.588605638430941 -0.696727043718841 0.000000000000000
12.629935221552055 -4.189687603289435 -0.677285395290506 0.000000000000000
12.550872588175462 -4.137006704601717 -0.709122777881697 1.000000000000000
12.417979769502592 -4.113313172961021 -0.735699293425441 1.000000000000000
12.262614049315495 -4.081054286840768 -0.760803663641227 1.000000000000000
12.183348345718274 -4.028903017395550 -0.788403245098175 1.000000000000000
11.965164451134907 -3.981121568482671 -0.844002735936756 0.000000000000000
11.859456653750351 -3.919510063858041 -0.869145508383734 0.000000000000000
11.789977617555497 -3.918535173405083 -0.898402748998146 0.000000000000000
11.803383427193108 -3.920446031292727 -1.124011847379841 1.000000000000000
11.635740946644702 -3.853031727208574 -1.321298346780752 2.000000000000000
12.270548862840043 -4.043770808453012 -1.652346758167021 2.000000000000000
11.492816573813588 -3.792408795244476 -1.700929321309980 5.000000000000000
9.822161523855154 -3.265477434522133 -1.794850077915898 21.000000000000000
9.156738027816438 -3.037712211820370 -1.817100066782993 27.000000000000000
8.538823993689013 -2.823940664994836 -1.826145963745628 28.000000000000000
6.083721648039755 -2.025778274879805 -1.802097456650707 6.000000000000000
50.381444783107725 -16.854110759266277 4.975649393705617 64.000000000000000
51.628998454270928 -17.257410694668621 3.154163707163679 41.000000000000000
0.483715209277560 -0.162044256305279 0.023554939103048 0.000000000000000
56.022522433328554 -18.732019955920990 1.979533023733262 29.000000000000000
54.884381755294640 -18.433106226070095 1.781072206733345 7.000000000000000
55.577539149809958 -18.619763497231240 1.620340667896389 50.000000000000000
55.462684735500901 -18.673664364715719 1.446475208877165 55.000000000000000
55.641280606927417 -18.612849970670815 1.275100515863382 53.000000000000000
55.366400470759203 -18.612686419706591 1.099939544444892 82.000000000000000
55.596860875698091 -18.569928339652172 0.928454113626393 55.000000000000000
42.225517591517480 -14.155154713219105 0.560046932411521 1.000000000000000
41.744281116115566 -14.059186079639517 0.429042113465651 0.000000000000000
41.487341264683586 -13.879018333666870 0.301447607891729 1.000000000000000
41.292340486225164 -13.883411281769455 0.172552801916421 141.000000000000000
41.336457830399723 -13.809357049053020 0.045551977259364 30.000000000000000
41.246788287355393 -13.849986705674283 -0.084773671704876 4.000000000000000
41.211531629266219 -13.789373726485536 -0.212195087217712 255.000000000000000
41.196639313760556 -13.855507483371248 -0.342561352965713 255.000000000000000
41.299737438501381 -13.802480092969169 -0.470891053625277 6.000000000000000
42.299100994598533 -14.224346164943938 -0.629607392245743 1.000000000000000
13.491362441199453 -4.523988796133295 -0.247009954652931 0.000000000000000
13.413971836518577 -4.469728873660060 -0.285074805803260 0.000000000000000
36.697673418169011 -12.345980060207367 -0.824442661524931 17.000000000000000
13.295017975288975 -4.456348906194478 -0.403364833872492 0.000000000000000
14.038771490678874 -4.712294131234280 -0.498562838868878 1.000000000000000
14.004008184839403 -4.714983681757374 -0.541145871286300 2.000000000000000
13.989745866826658 -4.683830909100003 -0.583907485370986 2.000000000000000
13.975567568999962 -4.707334328834918 -0.627197275898157 1.000000000000000
13.826615107009303 -4.625557945038068 -0.658141520327776 0.000000000000000
13.719157045464017 -4.613495087047347 -0.692224258978420 0.000000000000000
12.661421052214067 -4.251636336959322 -0.682488079709426 0.000000000000000
12.511869729189630 -4.171609113928554 -0.707606003181453 1.000000000000000
12.386538159504722 -4.150270254686120 -0.734851060425201 1.000000000000000
12.242469001660494 -4.121735489515835 -0.761052783881074 1.000000000000000
12.163407183488330 -4.069315379944094 -0.788635331764542 1.000000000000000
11.937880228166589 -4.017884497649845 -0.843366675974581 0.000000000000000
11.843540320317221 -3.960218190860886 -0.869761290396600 0.000000000000000
11.748130722514322 -3.948963061054229 -0.895913474366249 0.000000000000000
11.820778037537554 -3.973823827444349 -1.129234361548949 2.000000000000000
11.620057786091110 -3.892954151196868 -1.321901021379711 0.000000000000000
12.268930929463373 -4.091535779201728 -1.655582701366137 2.000000000000000
11.477326282488855 -3.831832607178278 -1.701524425532228 5.000000000000000
9.812141902903038 -3.300513331529139 -1.796211234773417 7.000000000000000
9.122199791975012 -3.060300868618114 -1.812060683114671 31.000000000000000
8.515932022582639 -2.848697116899217 -1.823635788957042 28.000000000000000
6.074395786201652 -2.046333806370050 -1.802411105653116 6.000000000000000
50.185051586458883 -16.981806788147466 4.961005927681276 31.000000000000000
0.445627683221668 -0.151581606335604 0.033764363438736 0.000000000000000
54.237887040793026 -18.355544130603249 2.272014201102110 4.000000000000000
54.145944746348356 -18.388712780157583 1.762650453305400 12.000000000000000
54.947684536687603 -18.616266320115024 1.606182327362706 25.000000000000000
54.814033460657626 -18.662339042406494 1.433755223239335 23.000000000000000
55.098148337015822 -18.640249045007835 1.265651283580277 55.000000000000000
54.729139470754987 -18.605351448139452 1.090979481192784 22.000000000000000
54.997108122223416 -18.577743650914982 0.921556228515706 34.000000000000000
42.283129659099835 -14.340445575204647 0.557969770528539 3.000000000000000
41.741875510612431 -14.221542349572566 0.426768995876625 0.000000000000000
41.444127413030110 -14.025743939976905 0.299250129395658 2.000000000000000
41.230273271497452 -14.022787924516692 0.170500213954297 13.000000000000000
41.285980872087002 -13.952891808478491 0.043410419494164 63.000000000000000
41.226349491469861 -14.003872251423516 -0.087340649556737 6.000000000000000
41.172329133211129 -13.936470178410801 -0.214548605371230 127.000000000000000
14.259485085788485 -4.822962985517663 -0.110398687816214 0.000000000000000
41.211489528886510 -13.932595273260624 -0.472144406113454 1.000000000000000
42.183027585493413 -14.348555504283567 -0.630077438884528 1.000000000000000
42.735133149965158 -14.451048507929862 -0.774726218139331 30.000000000000000
13.495705426683354 -4.578987149984314 -0.248967082342035 0.000000000000000
36.783971358678265 -12.520346180814172 -0.831157129069059 22.000000000000000
34.268009417863418 -11.549438394725925 -0.846757131386106 11.000000000000000
13.284770394586209 -4.504916075125763 -0.404562911621495 0.000000000000000
13.919473423358152 -4.722293610512871 -0.492057482810790 0.000000000000000
14.015094885035333 -4.774612229746836 -0.544111876693326 2.000000000000000
13.989801742643438 -4.739080568587958 -0.586091707550439 1.000000000000000
13.837743705355713 -4.709750934639857 -0.618229368213266 0.000000000000000
13.774744819606642 -4.660355460448827 -0.656025034185676 0.000000000000000
13.585455946574831 -4.616537877613787 -0.682822322835534 0.000000000000000
12.640609299944709 -4.293698427674528 -0.682798204014036 1.000000000000000
12.483926120267784 -4.210296316443440 -0.707171282552549 1.000000000000000
12.351271389244003 -4.185630400466074 -0.733627574689821 1.000000000000000
12.218473501693950 -4.160893199857213 -0.760915712999261 1.000000000000000
12.135901393378138 -4.106779833557269 -0.788074155246196 1.000000000000000
11.910481103532877 -4.054517335899256 -0.842729050659754 0.000000000000000
11.820067294389688 -3.997984704628372 -0.869513339317801 0.000000000000000
11.761753900364823 -4.000852864606500 -0.900067048737005 0.000000000000000
11.823156767632108 -4.021605628987558 -1.132409798693187 6.000000000000000
11.637415219769347 -3.945767362272626 -1.327735854130826 0.000000000000000
12.252394624947840 -4.133667604521342 -1.656218753635819 3.000000000000000
11.443353836370155 -3.864057634673671 -1.698583546960780 5.000000000000000
9.794738037145789 -3.332621895365364 -1.795866332192821 6.000000000000000
9.109263249906945 -3.091450619736172 -1.812532610907343 28.000000000000000
8.492967301582546 -2.873333984363910 -1.821124018217500 27.000000000000000
6.051168727113509 -2.060766077596185 -1.797456421479525 7.000000000000000
50.334067947151809 -17.230724997503430 4.977079709035804 33.000000000000000
51.725694173042001 -17.694656566036443 3.160190195468141 37.000000000000000
46.344315968029640 -15.961258586849873 2.014016670629601 255.000000000000000
53.529119762046903 -18.382097328205447 1.747095674158511 11.000000000000000
54.114928280867012 -18.536602815199700 1.588018323839064 14.000000000000000
53.928709342028768 -18.562372656383339 1.417091655657127 11.000000000000000
54.268849943780417 -18.562934191331017 1.252316976090048 13.000000000000000
53.821170840165991 -18.497591402401227 1.079195017185293 13.000000000000000
54.156518342783372 -18.496580282053898 0.912905215331253 13.000000000000000
42.287221451883802 -14.507474049679409 0.555822038945130 5.000000000000000
41.430528990526618 -14.183082724212476 0.296900422146706 2.000000000000000
41.216681901674960 -14.179442462931540 0.168047605358823 5.000000000000000
41.212385758418137 -14.088206456495520 0.041525610156367 8.000000000000000
41.250534113471680 -14.173941415038016 -0.090563706962858 34.000000000000000
41.143894524733746 -14.087500594370809 -0.217100813783025 8.000000000000000
41.090905630924205 -14.140071212954659 -0.346781641297862 3.000000000000000
41.382762725713810 -14.154871420697418 -0.479589785206766 6.000000000000000
42.337665999822214 -14.569146389912660 -0.637869499515828 1.000000000000000
42.840589832724888 -14.655713334205053 -0.781701241673761 17.000000000000000
13.488653122761434 -4.629739666526341 -0.250298572177355 0.000000000000000
36.839406591531450 -12.684621133210975 -0.836786594272092 21.000000000000000
34.405960211642089 -11.733036049839747 -0.855699943410562 11.000000000000000
13.490278951741091 -4.636986569508792 -0.420610029136052 0.000000000000000
13.822625219276423 -4.740115024243117 -0.487148566514559 1.000000000000000
13.936650239545360 -4.799744790633653 -0.540368657946375 0.000000000000000
13.870525434124195 -4.748468475650718 -0.578949141965667 0.000000000000000
13.845127644401986 -4.767438456762179 -0.621069539593403 1.000000000000000
13.737682037254109 -4.700582647594942 -0.655163863478153 0.000000000000000
13.459334937296614 -4.621591174922301 -0.674060712381872 0.000000000000000
12.615943547392886 -4.334228152499463 -0.682757275711059 1.000000000000000
12.459572735654094 -4.250288766634739 -0.707096702198951 1.000000000000000
12.319613501113217 -4.222252206845610 -0.732774951939264 1.000000000000000
12.168407233085482 -4.189757200107088 -0.758080057217333 1.000000000000000
12.100861477653273 -4.141208514662907 -0.786718252953831 1.000000000000000
12.001592694954024 -4.128637684562392 -0.816590805455411 1.000000000000000
11.890365522295872 -4.093937151745074 -0.842929934575500 0.000000000000000
11.723384266263380 -4.032458711385885 -0.898017710131957 0.000000000000000
11.677727745848628 -4.011237926357218 -1.115078447550856 13.000000000000000
11.606676131350291 -3.979891311086050 -1.326013065844512 0.000000000000000
12.243063762374351 -4.178604972971584 -1.658154978524558 2.000000000000000
11.431273005328430 -3.904748543619512 -1.699884250043861 5.000000000000000
9.784469833872485 -3.367583859782719 -1.797227014789746 5.000000000000000
9.078199014252744 -3.115189438376227 -1.808408165879599 31.000000000000000
8.484264767307748 -2.903771692701248 -1.822547926854643 30.000000000000000
6.034813807944054 -2.078137560445768 -1.795134494402561 6.000000000000000
50.361865471653722 -17.437902629055039 4.982460669801037 33.000000000000000
46.341804484285824 -15.973236283468509 2.884552792563448 25.000000000000000
46.317212549310163 -16.031925910417570 1.868714712594504 255.000000000000000
53.606432962280330 -18.527715039478188 1.912834472562985 15.000000000000000
53.524408620892309 -18.537543483281084 1.574743766618961 12.000000000000000
46.293219559460553 -16.111398743091648 1.139532091770020 5.000000000000000
46.321672935621450 -16.020656028811295 0.997656490011540 8.000000000000000
46.295751987372462 -16.091292848108395 0.850018194763609 6.000000000000000
42.301941377179539 -14.678788712126419 0.553682287455989 4.000000000000000
41.742607139671506 -14.385408690789156 0.424484797928472 1.000000000000000
41.412573170285285 -14.339155663814701 0.294567608169717 1.000000000000000
41.221301990088214 -14.342985373214397 0.165436770400366 3.000000000000000
41.266311079583204 -14.269222074336845 0.038191101076810 157.000000000000000
41.240171611507421 -14.332131332171308 -0.093300560088665 255.000000000000000
41.129952996831385 -14.243943162528439 -0.219919905915057 3.000000000000000
41.091814409234665 -14.301836664487141 -0.350026486931152 2.000000000000000
41.191790867236783 -14.248424407667891 -0.478415635663080 1.000000000000000
42.213019559245801 -14.690320142501491 -0.638133173129468 13.000000000000000
42.862356855347947 -14.831540552158366 -0.786193511182035 3.000000000000000
13.477686991374147 -4.679056144918675 -0.251421280974574 0.000000000000000
13.386081196081644 -4.618092256849927 -0.288714278376574 0.000000000000000
34.479151517542356 -11.894600180938291 -0.862123101215621 14.000000000000000
13.734762269881459 -4.757535812905616 -0.396028335270350 0.000000000000000
13.800225745460159 -4.786223378577247 -0.487592918952742 1.000000000000000
13.813617923781834 -4.806925685320010 -0.533260019796897 1.000000000000000
13.833129617769229 -4.788950060950263 -0.578212925382793 1.000000000000000
13.833700313167492 -4.817980434459436 -0.622395515682924 1.000000000000000
13.811996552302356 -4.783967369563648 -0.663752135344874 1.000000000000000
13.496740014898984 -4.689618628014024 -0.679654360050678 0.000000000000000
12.598554220476865 -4.377573110462812 -0.683415357204234 1.000000000000000
12.438794441971782 -4.291630414841670 -0.707382993813539 1.000000000000000
12.291550549396954 -4.260172088838587 -0.732293797404395 2.000000000000000
12.147891308296698 -4.230067173803285 -0.758324784326326 1.000000000000000
12.065725336421329 -4.175455990248850 -0.785359935118392 1.000000000000000
11.973938566902799 -4.165442260808092 -0.815982843447503 1.000000000000000
11.847951202299670 -4.124419564359094 -0.840608089684729 0.000000000000000
11.710781367242589 -4.074160687523502 -0.899069484185521 0.000000000000000
11.628329352667654 -4.038091036668554 -1.111068538896481 2.000000000000000
11.505979100888064 -3.986037445054784 -1.313234760885849 0.000000000000000
12.189497449251803 -4.206180348396785 -1.652284089276905 3.000000000000000
11.404409345761193 -3.939592075432849 -1.698354533150485 4.000000000000000
9.770454646914965 -3.401046479335349 -1.797734383042592 5.000000000000000
9.057870159598668 -3.143215859158225 -1.807039806345866 31.000000000000000
8.461135163825862 -2.928220394569728 -1.820033812014263 28.000000000000000
6.021852924889839 -2.096968165209873 -1.794128738485945 6.000000000000000
0.331514037744039 -0.115763611708807 0.062765900226248 0.000000000000000
46.280074526938307 -16.132887578374536 2.881944224860479 255.000000000000000
46.286342290991122 -16.122269892278617 2.011600843418328 255.000000000000000
46.277474664270976 -16.127883051735552 1.428930777082633 3.000000000000000
52.714821324930341 -18.545296103640894 1.393317922385842 11.000000000000000
52.637540893062805 -18.491347199991736 1.062523403678433 17.000000000000000
42.319732154612275 -14.851765358374067 0.551540859304813 2.000000000000000
41.791582202091703 -14.567201043264305 0.422097221165215 1.000000000000000
41.446636418950369 -14.514457485499662 0.291959619041610 1.000000000000000
41.191472687063587 -14.494367407667724 0.163103770329673 7.000000000000000
41.229253127557442 -14.417978124326268 0.035877984781168 255.000000000000000
41.104139520328992 -14.396351120756371 -0.222541270237718 2.000000000000000
41.103350753390153 -14.467911091541652 -0.353511191338459 1.000000000000000
41.252427285243215 -14.432499999593219 -0.483269344747969 2.000000000000000
42.174412978433708 -14.842403711980147 -0.640738537780003 24.000000000000000
13.619497213889650 -4.773781892429106 -0.217438790252599 1.000000000000000
13.470250588376709 -4.729821489704705 -0.252753784153202 0.000000000000000
13.401184136106430 -4.677296304622232 -0.291404523591918 0.000000000000000
34.536611363789604 -12.051327085473076 -0.867959371734326 18.000000000000000
13.760563860596516 -4.822314793454829 -0.399678665570000 0.000000000000000
13.776814654715796 -4.802508386750489 -0.442316657006737 0.000000000000000
13.903985186101320 -4.881806583633406 -0.497159137055996 1.000000000000000
13.813126422475365 -4.861796581536559 -0.535381888971472 1.000000000000000
13.884706519024260 -4.864302005559452 -0.584479191760288 0.000000000000000
13.789393769824615 -4.830025101459313 -0.664152803115875 0.000000000000000
13.578329971303210 -4.775536447199613 -0.689173657540288 0.000000000000000
12.573611358402555 -4.417900836899918 -0.683372485668897 2.000000000000000
12.406768992648709 -4.328471517843148 -0.706581502293387 1.000000000000000
12.274465165922177 -4.302383412253668 -0.732932228412039 2.000000000000000
12.116151040572026 -4.265854344206488 -0.757411263561789 1.000000000000000
12.045284327041708 -4.215407293817556 -0.785586494971526 1.000000000000000
11.938780198594911 -4.199158258865637 -0.814555201250437 1.000000000000000
11.771051627860952 -4.119519439458543 -0.871355295480486 0.000000000000000
11.694338174173382 -4.114349458439534 -0.899677781145987 0.000000000000000
11.567841318362079 -4.060217298419786 -1.105515269043761 3.000000000000000
11.497166675107414 -4.028463985978966 -1.314995879390978 0.000000000000000
12.205558354760145 -4.261165122688659 -1.658774418104402 3.000000000000000
11.366478013233726 -3.969903507172631 -1.694700075392083 5.000000000000000
9.738262695557973 -3.426996093884355 -1.793973398583996 5.000000000000000
9.037451739636801 -3.171147078705239 -1.805670012284692 31.000000000000000
8.437932917933404 -2.952557247380632 -1.817518470449895 29.000000000000000
4.299530967648656 -1.510713471393153 -1.754822553817811 0.000000000000000
0.382287061704508 -0.134806634958828 0.049079891846346 0.000000000000000
46.259075014931256 -16.307386915605264 2.881456689089809 255.000000000000000
46.257851827331258 -16.294046998621155 2.010163073301576 255.000000000000000
52.531749405162948 -18.648352290087267 1.720394540334885 16.000000000000000
52.491845744093297 -18.581313178555220 1.551279344304353 17.000000000000000
52.475020191134085 -18.665131044577976 1.387661624768825 17.000000000000000
52.502302469987256 -18.558086137821391 1.222532714660286 16.000000000000000
52.473019884820289 -18.638535919856999 1.058755403227618 25.000000000000000
52.491775858165319 -18.528499292034667 0.893706419352396 17.000000000000000
42.370599386083832 -15.037510423745516 0.549426898020148 1.000000000000000
41.854806966590203 -14.755023717841688 0.419669036298964 1.000000000000000
41.513760530519427 -14.702622128035323 0.289166899669987 1.000000000000000
41.202345811189865 -14.660991938231263 0.160422895402342 1.000000000000000
41.244213619395552 -14.585984473508979 0.032960744142224 255.000000000000000
41.126541382170359 -14.566748882132778 -0.226033994381073 2.000000000000000
41.259734415339274 -14.597840282534122 -0.486867723380288 1.000000000000000
42.210269711957068 -15.022136773342673 -0.645391949250306 16.000000000000000
13.611850539777279 -4.825047692855456 -0.218735722499652 1.000000000000000
13.458910177032609 -4.779117590381979 -0.253877071539411 0.000000000000000
37.270739861067604 -13.133697879753065 -0.859906489729677 13.000000000000000
34.754581660143941 -12.268275522509043 -0.880239960275138 16.000000000000000
13.772741824624816 -4.855766842955475 -0.444055079586574 0.000000000000000
14.062890348192710 -5.000238566899654 -0.510765085432135 0.000000000000000
13.917385157392715 -4.932709963939537 -0.589292072856508 0.000000000000000
13.855467349455310 -4.881699552349524 -0.626453176616199 0.000000000000000
13.447893490709033 -4.749473696798532 -0.637423845502758 0.000000000000000
12.734402780167244 -4.520896328371862 -0.659618602825625 0.000000000000000
12.559620824656369 -4.462586714310696 -0.684379726644408 2.000000000000000
12.382027385413554 -4.368117034743413 -0.706502926824939 1.000000000000000
12.260924015003720 -4.346027695892673 -0.733943893247079 1.000000000000000
12.021014488078936 -4.253788495955753 -0.785415361388092 1.000000000000000
11.936731920927055 -4.246103305692536 -0.816807671198180 1.000000000000000
11.846041586483770 -4.171038055826017 -0.842908316897784 0.000000000000000
11.663023301607186 -4.148485347004410 -0.898510136464076 0.000000000000000
11.716801709768653 -4.167136953119858 -1.129213788086273 5.000000000000000
11.554188058105805 -4.097694997631194 -1.327236272935268 0.000000000000000
12.214054540944222 -4.313380409016347 -1.663965401830733 4.000000000000000
11.335766247291279 -4.002962880760705 -1.692458569111072 5.000000000000000
9.709610645695211 -3.454277259463360 -1.791064175103553 5.000000000000000
9.013357279526009 -3.197467675972376 -1.803379261859200 31.000000000000000
8.421796618638544 -2.979805495114640 -1.816970987885640 28.000000000000000
6.015711255683912 -2.118860932413263 -1.795757302045043 7.000000000000000
4.308173056434342 -1.533094089262342 -1.763581135615346 0.000000000000000
0.352082656901293 -0.126518241316042 0.055894381105664 0.000000000000000
0.367127038567746 -0.130790404606095 0.052485194809397 0.000000000000000
0.420659950673113 -0.151085693131769 0.037096500472460 0.000000000000000
46.202465416472236 -16.456140208093856 2.007870891130863 255.000000000000000
52.539429474483001 -18.858686823765332 1.719402264885133 16.000000000000000
52.488389034273141 -18.787319531804179 1.549792200760271 17.000000000000000
52.463757848933845 -18.868391631590576 1.385856629003481 17.000000000000000
52.468954845407701 -18.753026038725608 1.220250512135671 21.000000000000000
52.469397163065601 -18.844529567842798 1.056689466813778 23.000000000000000
52.466084587677734 -18.726142111977261 0.891281345483184 22.000000000000000
52.477277235133307 -18.820861175311656 0.727684209854005 18.000000000000000
41.913475562735449 -14.942081892231705 0.417238269388470 0.000000000000000
41.546329547229831 -14.878877753935434 0.286542201318687 1.000000000000000
41.242912122155694 -14.821304390172685 -0.102080984318876 3.000000000000000
41.122016386591021 -14.727711735945135 -0.229062975973530 1.000000000000000
41.095474661783385 -14.627297960941767 -0.356606991272479 1.000000000000000
41.195173596301046 -14.736919467496108 -0.488749316165859 1.000000000000000
13.810273636523307 -4.929669627017319 -0.185904739664778 2.000000000000000
42.218689787397942 -15.099376506900377 -0.778256911972969 7.000000000000000
13.465900885046207 -4.835885305213530 -0.256050323838099 0.000000000000000
37.181283469397542 -13.247688751976568 -0.860344771843627 2.000000000000000
34.877856002181225 -12.451879928877545 -0.888800575881279 12.000000000000000
14.013653942841897 -5.036760490202340 -0.509342052014147 0.000000000000000
14.001354095290404 -4.992319068897629 -0.551798049003779 2.000000000000000
13.975661859095462 -5.011823063497424 -0.596155836052757 0.000000000000000
13.605944802461650 -4.891925261057168 -0.610572095328076 0.000000000000000
13.740013294912790 -4.920375544558361 -0.664635645866519 0.000000000000000
13.011645887381249 -4.655963126353178 -0.643802082010777 0.000000000000000
12.552845496876976 -4.510248077212253 -0.686088402525247 2.000000000000000
12.364538421909129 -4.410647004994630 -0.707148120394925 1.000000000000000
12.247222848308041 -4.389635172454213 -0.734955536383296 2.000000000000000
12.102756646364016 -4.308950097002061 -0.758425211775277 1.000000000000000
12.000306118015359 -4.293558651244069 -0.785639860403067 1.000000000000000
11.927128831709153 -4.290083088154333 -0.818242508069309 1.000000000000000
11.829211813151085 -4.211694862502640 -0.843526866539982 0.000000000000000
11.726617001124751 -4.195723144556226 -0.871282671171710 0.000000000000000
11.707357402571338 -4.210354331463897 -1.130849988158977 4.000000000000000
11.621842813334876 -4.171886391376106 -1.341230860447248 3.000000000000000
12.225986059215145 -4.367196040829576 -1.669809928055010 4.000000000000000
11.308600596263696 -4.037357228773047 -1.690923191540566 5.000000000000000
9.677281947472224 -3.479888684377308 -1.787298808894207 7.000000000000000
8.989184588644925 -3.223671682479718 -1.801087200571970 29.000000000000000
8.402005335378758 -3.005455252733476 -1.815437671517524 28.000000000000000
6.006050388772727 -2.139174453946822 -1.796068290112059 7.000000000000000
4.287613921300009 -1.540956783572426 -1.756972437216238 0.000000000000000
0.400531928564713 -0.145156397805906 0.042208897611816 0.000000000000000
0.460062527864309 -0.165793278952350 0.025137965793620 0.000000000000000
52.542527025631109 -19.067907454459416 1.718317829567434 15.000000000000000
52.480380532756080 -18.992139806255807 1.548226464448200 18.000000000000000
52.461119580499904 -18.957743942341494 1.218322442413279 20.000000000000000
52.476210128349052 -19.054954642069319 1.054736722305289 22.000000000000000
52.477135217285024 -18.937780158304520 0.889126843160368 21.000000000000000
52.484225708935050 -19.031249712902266 0.725273589690686 19.000000000000000
52.483019279571259 -18.978377501314810 0.556809996855948 22.000000000000000
41.626837314630357 -15.073862169671592 0.283648944958696 1.000000000000000
41.268747510111943 -14.848905205778692 0.157261049401059 1.000000000000000
41.317036398904435 -14.939722834853157 0.026587366562515 27.000000000000000
41.357305279846599 -15.028027193801996 -0.106718407248739 3.000000000000000
41.154285249515397 -14.902932472366579 -0.232768524267749 1.000000000000000
41.101958446408815 -14.792426580687334 -0.360022003895066 1.000000000000000
41.287349032666484 -14.934850711206010 -0.494441653641052 255.000000000000000
42.005650892228168 -15.112736151048928 -0.643486590993508 5.000000000000000
42.025142145724587 -15.194001773017753 -0.776222593045647 4.000000000000000
13.468956037881231 -4.891259893259075 -0.258015504491041 0.000000000000000
13.456056945834217 -4.860432772355253 -0.300159213595299 0.000000000000000
34.955398321807138 -12.619535013390930 -0.895577053258854 13.000000000000000
14.054526073202448 -5.106590429493060 -0.425134944798393 0.000000000000000
13.940966316070236 -5.024047764770124 -0.549445457856042 0.000000000000000
12.746364705931107 -4.627937629294415 -0.665344973784229 0.000000000000000
12.527464567969602 -4.550336861842219 -0.686042847719457 2.000000000000000
12.346899384638622 -4.453103122347969 -0.707792673495619 2.000000000000000
12.214946012551110 -4.425634277596387 -0.734095285353801 2.000000000000000
12.081834489269440 -4.348995254810369 -0.758666841357198 1.000000000000000
11.983144328744379 -4.334754018215783 -0.786261070830514 1.000000000000000
11.812237833650105 -4.252294185651550 -0.844145056512572 0.000000000000000
11.713396157894854 -4.237482345030500 -0.872326859956291 0.000000000000000
11.645243862886986 -4.228424846510023 -1.348243220160938 7.000000000000000
12.197519364121055 -4.404680102798231 -1.668491780946498 4.000000000000000
11.288603577329999 -4.074630501681760 -1.690802703425081 5.000000000000000
10.445311556850687 -3.764286742187110 -1.764637611119675 5.000000000000000
8.968511113297492 -3.251288541670895 -1.799713580684273 31.000000000000000
8.375018773489977 -3.027929961302981 -1.811933140633635 28.000000000000000
5.989456942398183 -2.156292106913419 -1.793743094920998 7.000000000000000
4.257367761375281 -1.543802185058624 -1.745238735895985 2.000000000000000
0.392835905300524 -0.143326927752334 0.043908673814910 0.000000000000000
52.805186168959224 -19.325529431718472 3.219709034094887 23.000000000000000
52.536142631062376 -19.209334182910325 2.212560192289458 19.000000000000000
52.486747589929941 -19.164242199728463 1.878594747760871 20.000000000000000
52.537316960457311 -19.274556602837997 1.717055694889137 15.000000000000000
52.482805806862963 -19.201381377683383 1.546878728573192 18.000000000000000
52.462940745208741 -19.076024539474311 1.384235512157328 17.000000000000000
52.478688672827658 -19.172508569915031 1.216744463929865 18.000000000000000
52.478445953274488 -19.264232686988237 1.052738708094803 23.000000000000000
52.476111648524189 -19.145509147160574 0.886884781296698 21.000000000000000
52.486598452823202 -19.240507298128179 0.722841853669731 17.000000000000000
52.481717176388564 -19.186197877919859 0.554114038009142 20.000000000000000
52.464998058410458 -19.270529339087702 0.388800764891157 23.000000000000000
41.360528707995407 -15.047353563199863 0.153864307434847 2.000000000000000
41.415910599668273 -15.141377232790184 0.022645741606491 18.000000000000000
41.332469930296682 -15.183026932180390 -0.109310465129378 1.000000000000000
41.223206487112982 -15.092794238343330 -0.237156414951959 1.000000000000000
41.257401927155016 -15.014404359748028 -0.366610403308438 238.000000000000000
41.273968488973985 -15.093828572077342 -0.497600263241715 255.000000000000000
41.531578979650057 -15.100364020630828 -0.634163684024373 6.000000000000000
42.093136406944623 -15.386722902933933 -0.782186729200664 7.000000000000000
13.479168922245206 -4.949767807620745 -0.260403132958671 0.000000000000000
13.459030560384798 -4.915793321364902 -0.302195157256530 0.000000000000000
35.103133958673858 -12.814998700911922 -0.905219800655365 16.000000000000000
13.993865829869140 -5.138312271411309 -0.423163446796480 0.000000000000000
14.014385529519691 -5.119575579917267 -0.467007932721824 0.000000000000000
14.056822585271908 -5.110424976260617 -0.514637351974475 0.000000000000000
12.988808450037366 -4.723446975097218 -0.605067534618040 0.000000000000000
12.742799213491580 -4.677810733639824 -0.667362065533426 0.000000000000000
12.509309729088232 -4.593364234567623 -0.686698112234316 2.000000000000000
12.329109536762092 -4.495508438054820 -0.708436975070432 1.000000000000000
12.211985471817385 -4.473688921171124 -0.736229213093774 1.000000000000000
12.068135524898540 -4.391992800912973 -0.759680341785457 1.000000000000000
11.973190460229427 -4.378949195143989 -0.787676879994478 1.000000000000000
11.895285942019266 -4.324959850159786 -0.817220296201496 1.000000000000000
11.795120016572374 -4.292824503674801 -0.844762453959354 0.000000000000000
11.703691029855483 -4.280742391737768 -0.873804068402142 0.000000000000000
11.705076983180668 -4.256607020118132 -1.133513607991131 5.000000000000000
11.642832747436760 -4.274490131013302 -1.351180184647992 9.000000000000000
12.172581105988160 -4.443539783563423 -1.667823446364386 5.000000000000000
11.250319249601642 -4.104225999670440 -1.687138756635123 5.000000000000000
9.662866778048436 -3.512979354463916 -1.787801512442816 6.000000000000000
8.940607901436701 -3.275707301492410 -1.796498050275439 19.000000000000000
8.351525733230769 -3.051811676031654 -1.809411807394639 28.000000000000000
5.976236613565775 -2.174923504315281 -1.792734978736582 7.000000000000000
4.256138944175163 -1.561275542635961 -1.748874041540009 2.000000000000000
0.275698994871869 -0.101796406423539 0.072986609945001 0.000000000000000
0.389724418148144 -0.144018101674270 0.043891604627114 0.000000000000000
52.888549681125959 -19.567415092307662 3.224813029378564 32.000000000000000
52.534048111955265 -19.417548218228610 2.211995224936102 19.000000000000000
52.492342670612146 -19.375093668009001 1.877815151748874 20.000000000000000
52.535036396926678 -19.482835264009942 1.715874978920385 15.000000000000000
52.488137187528771 -19.412302630476468 1.545599508931273 17.000000000000000
52.476271967583692 -19.289552985390081 1.382859098830478 16.000000000000000
52.476700666367719 -19.380509473068535 1.214907064488054 19.000000000000000
52.479857450914807 -19.473766949075454 1.050735303851948 22.000000000000000
52.478010801533543 -19.354884895046638 0.884664745174378 22.000000000000000
52.480671607221815 -19.447170011564928 0.720374329358937 19.000000000000000
52.483332822072924 -19.395671554923148 0.551416301725792 19.000000000000000
52.473875904563926 -19.364730658491141 0.222306589641218 22.000000000000000
52.470585853271210 -19.455493845189288 0.055667695263344 21.000000000000000
41.236225660887115 -15.170512907042628 -0.369486723157517 255.000000000000000
41.200065789046349 -15.139054420414574 -0.628708575772795 1.000000000000000
41.701070855563032 -15.404095720120786 -0.774054928349063 11.000000000000000
41.171107207229262 -15.274185782872607 -0.890873710959132 10.000000000000000
37.746643799226490 -13.908326143429399 -0.892622211880703 5.000000000000000
35.264836171795245 -13.017419383683958 -0.915483026916216 19.000000000000000
13.990650930639806 -5.166280301437681 -0.467477615254136 0.000000000000000
14.010975098437667 -5.148229717084405 -0.513480699976678 0.000000000000000
14.070873104018446 -5.189871525019150 -0.563822682549097 0.000000000000000
14.015453887797065 -5.197063609142731 -0.606249216197215 0.000000000000000
12.911712276671972 -4.771625084230706 -0.641889407970095 0.000000000000000
12.491003147654071 -4.636332936364759 -0.687352991593255 2.000000000000000
12.307493578510980 -4.536316480087571 -0.708717224795508 1.000000000000000
12.183126293783102 -4.511000636116528 -0.735741025165752 1.000000000000000
12.054278541895034 -4.434957723825228 -0.760693415737833 1.000000000000000
11.963068425519472 -4.423125586970286 -0.789092966092813 1.000000000000000
11.892729091867748 -4.371901968954752 -0.819473781369026 1.000000000000000
11.777857983396613 -4.333305063054823 -0.845379383796287 0.000000000000000
11.675501542659219 -4.316266631779115 -0.873114952281194 0.000000000000000
11.728223794338575 -4.313627826380596 -1.139775416585076 7.000000000000000
11.636591431899102 -4.319057712742392 -1.353535161782145 15.000000000000000
12.147516027751411 -4.482286805713883 -1.667153593935171 4.000000000000000
11.233721866867388 -4.142803437992463 -1.687724248164669 5.000000000000000
9.644743856130964 -3.544472603732700 -1.787449511244704 5.000000000000000
8.923336686089174 -3.304663811104007 -1.796042042088101 8.000000000000000
8.327963711270092 -3.075574400020940 -1.806888890947842 29.000000000000000
