# This PCD file was generated using the MATLAB® pcwrite function
# from Computer Vision Toolbox®.
# .PCD v.7 - Point Cloud Data file format
VERSION .7
FIELDS x y z intensity
SIZE 8 8 8 8
TYPE F F F F
COUNT 1 1 1 1
WIDTH 634
HEIGHT 1
VIEWPOINT 0 0 0 1 0 0 0
POINTS 634
DATA ascii
7.257898106808224 -25.421077139030494 -1.755569125600440 1.000000000000000
7.392536230870016 -25.699513833458383 -1.861053207303195 3.000000000000000
7.331753409194749 -25.634473134120462 -1.937022092965981 2.000000000000000
7.407740204904757 -25.701156281077168 -2.023796914537694 7.000000000000000
7.198294909450130 -25.049253199302946 -2.118739621472356 24.000000000000000
7.007933902840664 -24.511319150119373 -2.142812900399702 10.000000000000000
6.923961098542725 -24.014790921555061 -2.166954491032544 11.000000000000000
6.730127090413879 -23.461549377838072 -2.182725786934454 10.000000000000000
6.555437539347930 -22.969457479842472 -2.197643108334454 12.000000000000000
6.439865944859271 -22.370399294477409 -2.204438428584373 12.000000000000000
6.118375573983077 -21.469554575850427 -2.162931908336457 18.000000000000000
5.996341453276377 -20.856434461395356 -2.158846617585376 23.000000000000000
4.549181620169299 -15.958254342258067 -1.911174427307518 7.000000000000000
3.814260171928583 -13.253497258310635 -1.778647477018059 5.000000000000000
2.980660180270064 -10.338125583006295 -1.680202692126131 5.000000000000000
2.677254447003794 -9.346082184778979 -1.701582516252539 5.000000000000000
2.465208370958198 -8.542989294398573 -1.698338322244155 5.000000000000000
2.240759573743061 -7.814695899641993 -1.683023729319026 3.000000000000000
7.235376829551442 -25.590967397074948 3.955544877361969 21.000000000000000
7.127411806564681 -25.173112479483635 2.476423199702431 8.000000000000000
7.222941642515780 -25.503973807085256 1.538742579020665 17.000000000000000
8.291800620594922 -29.380440943836376 1.137469175610818 255.000000000000000
8.303305455379236 -29.359741705016724 0.950421545538159 255.000000000000000
8.274902781583185 -29.373626361851798 0.768742092770873 255.000000000000000
8.340196777517745 -29.373040465746971 0.677355107095572 255.000000000000000
8.298030376474145 -29.393196134459092 0.583230979347548 255.000000000000000
8.263505830913717 -29.322522066466721 0.215590121026076 1.000000000000000
10.616053019551615 -37.366481768938016 0.137268559325832 11.000000000000000
10.588625820063456 -37.484622431513905 0.018935345855538 12.000000000000000
10.600125009985927 -37.226756994177023 -0.094745967745235 10.000000000000000
10.617026956782890 -37.506288797204135 -0.217035448196974 12.000000000000000
10.613502614574095 -37.712184593090775 -0.338619902387513 12.000000000000000
8.262229242682617 -29.308304049630028 -0.335841205360507 0.000000000000000
10.620060121297366 -37.368743856314865 -0.562690111752974 11.000000000000000
8.281443636580807 -29.314037091477893 -0.521265064080623 1.000000000000000
10.600587469434869 -37.515644958078440 -0.685213918806746 11.000000000000000
10.665360296602884 -37.448590402068589 -0.800540538132144 12.000000000000000
10.619326167362196 -37.502417909551802 -0.921333070694497 12.000000000000000
10.565236632527657 -37.525188463637548 -1.038366639885258 11.000000000000000
10.601904929175060 -37.357031047564334 -1.150953271170549 9.000000000000000
10.638979226540942 -37.424316769209071 -1.266582706226529 9.000000000000000
10.467344668843090 -37.022404856537833 -1.365966217413972 14.000000000000000
10.482567674458901 -36.997923062407907 -1.597814337559151 16.000000000000000
7.223317399642969 -25.509878222197855 -1.195306242660865 1.000000000000000
7.172507427173846 -25.476792554496825 -1.275429681322987 30.000000000000000
7.222926738553775 -25.453754598080273 -1.354515568810756 89.000000000000000
7.126277152255453 -25.254951581072039 -1.420495326231169 0.000000000000000
8.609643048425104 -30.243229107751255 -1.792003519185755 3.000000000000000
8.473969166692168 -29.929914037487279 -1.860522132398460 1.000000000000000
7.204724620437848 -25.433868181336667 -1.673308709555934 4.000000000000000
7.086350134774308 -25.153652697832946 -1.730724626489360 0.000000000000000
7.281929953153999 -25.659467152183041 -1.855609060662458 2.000000000000000
7.206739907179166 -25.540406666849357 -1.926390980242845 5.000000000000000
7.318335352435461 -25.737993115982437 -2.025294580338788 3.000000000000000
7.144876601733005 -25.208187036402094 -2.132781143883906 15.000000000000000
6.900550136348149 -24.466152911360737 -2.135952247436702 11.000000000000000
6.832994986648328 -24.023089923192323 -2.165672125513395 10.000000000000000
6.637974972973999 -23.457661841018080 -2.180106553443062 6.000000000000000
6.464011728874570 -22.961130166241528 -2.194497960877236 11.000000000000000
6.349433307571993 -22.357867496895246 -2.200740296787573 12.000000000000000
5.911184545548331 -20.842375759457870 -2.154921824431745 24.000000000000000
3.770242606082963 -13.285419872962676 -1.781957991481022 5.000000000000000
2.940696508334043 -10.344288765172585 -1.679614122401702 5.000000000000000
2.640769426141605 -9.351204330258676 -1.700898972229873 5.000000000000000
2.430545222026582 -8.543617955189328 -1.696684725393887 5.000000000000000
2.209641812900842 -7.818329980771974 -1.682184337024319 3.000000000000000
7.179782879430793 -25.749757702474163 3.972653724297134 22.000000000000000
7.051496389361867 -25.251362369604948 2.480119801949264 2.000000000000000
7.133298359149381 -25.536365240302896 1.538655837119387 20.000000000000000
8.238907151076942 -29.363136967261500 1.044419201528473 132.000000000000000
8.193903150170884 -29.372727150589956 0.949751133975247 255.000000000000000
8.250792432681424 -29.342346855507525 0.858678208759523 255.000000000000000
8.159127611623955 -29.363342100755311 0.767963925679843 30.000000000000000
8.233835489714467 -29.397733255492476 0.676883791452379 255.000000000000000
8.190565449179424 -29.413879780771349 0.582765550361392 56.000000000000000
8.243604175903037 -29.370738729882397 0.491291347264020 2.000000000000000
8.190779680233396 -29.351646881360338 0.397395633234598 11.000000000000000
8.246155023536144 -29.315755263696001 0.306235127010048 4.000000000000000
8.157289079834571 -29.346945397685687 0.215181018422925 28.000000000000000
8.218907802214057 -29.333468997825126 0.123349177484057 5.000000000000000
8.174229249410738 -29.344148718656104 0.030583134790591 36.000000000000000
10.601132250013823 -37.749011166463731 -0.103041496547673 11.000000000000000
8.186140979476576 -29.325087297998742 -0.153625111707271 15.000000000000000
8.159170029507132 -29.344302156821033 -0.336504658645289 16.000000000000000
8.218256360581808 -29.321505960658254 -0.429177084215888 3.000000000000000
8.172100174336668 -29.326951539985203 -0.521182577020672 10.000000000000000
8.236794143820203 -29.326726695573814 -0.615137205094134 1.000000000000000
8.188391001807382 -29.323853490572748 -0.706226695034170 7.000000000000000
8.160592220476866 -29.339760610642973 -0.889088410066139 18.000000000000000
10.626158406971275 -37.900098341391853 -1.287561009490518 10.000000000000000
7.371217534471821 -26.531032944872837 -1.011889052557685 0.000000000000000
10.540883913030713 -37.505985136689020 -1.506684216652144 13.000000000000000
8.192269024063604 -29.328564227508110 -1.259916796425974 7.000000000000000
7.121979578622597 -25.499877027278799 -1.193450301207135 19.000000000000000
7.075502947598668 -25.482022800426680 -1.274507751487502 12.000000000000000
7.125975553877534 -25.459175504120271 -1.353537059603617 36.000000000000000
7.048796566242278 -25.329362229410883 -1.424586717280051 2.000000000000000
7.058991071482938 -25.159633339255222 -1.490831601973908 0.000000000000000
6.978329695465040 -25.014160570467226 -1.560300145691843 0.000000000000000
7.074409450509366 -25.316099304759131 -1.661856304888000 14.000000000000000
6.958277932480838 -25.039300956474847 -1.719150773367080 0.000000000000000
7.056670721708810 -25.195958037012648 -1.812353010739537 0.000000000000000
7.112624224476146 -25.557332909555814 -1.926066326269740 9.000000000000000
7.209907669141498 -25.705355759840302 -2.020179913165590 5.000000000000000
7.045606041785229 -25.201855068326175 -2.130045924462764 10.000000000000000
6.809114591372038 -24.478181911527319 -2.135117522868492 9.000000000000000
6.733699166968127 -24.000344098190862 -2.161075365907352 11.000000000000000
6.538661599058898 -23.426556700047669 -2.174502687587578 9.000000000000000
6.232125318113541 -22.245245000813760 -2.185359310597380 15.000000000000000
6.044660651468557 -21.505737838226157 -2.165101813510257 24.000000000000000
5.831371319264744 -20.847161514281119 -2.153351938365867 26.000000000000000
4.492643532730884 -15.981296476110039 -1.912522541308816 7.000000000000000
3.718966226843685 -13.290479715064519 -1.780916252937660 5.000000000000000
2.899730548525720 -10.346506874588783 -1.678276164898543 5.000000000000000
2.605254742256613 -9.359985839112126 -1.701039223600104 5.000000000000000
2.398823402566244 -8.555446643392866 -1.697705759902433 5.000000000000000
2.182347128505952 -7.836908468441889 -1.685175204693490 4.000000000000000
7.083221481957755 -25.758933359933234 3.970269390285670 23.000000000000000
7.282214392999097 -26.477870467428662 2.570646183614054 18.000000000000000
7.571450659480261 -27.541579323658656 1.615618768122652 38.000000000000000
7.667522767259089 -27.891538662765530 1.104523531849551 0.000000000000000
8.112667424714459 -29.357735217663716 0.122955221208294 11.000000000000000
8.133115186730898 -29.370080731915785 -0.062448147628741 3.000000000000000
8.138130736839896 -29.323541624928275 -0.247093491614471 4.000000000000000
8.114108508455482 -29.353492353851252 -0.429740837315661 5.000000000000000
8.129522280618216 -29.347199028179215 -0.615291504570496 2.000000000000000
8.142022306139674 -29.328415325463091 -0.799740627565872 2.000000000000000
8.123399517253137 -29.378274996044240 -0.984871366574880 1.000000000000000
7.153402556780072 -26.096928356978559 -0.986717011952079 1.000000000000000
7.131808139779052 -25.800586675076129 -1.051498336402878 0.000000000000000
7.006808676808463 -25.490176903094554 -1.114488181046916 0.000000000000000
6.975418762166131 -25.319795306453777 -1.180604745496204 0.000000000000000
6.991873456335496 -25.325464235190569 -1.342707948162936 4.000000000000000
6.884572783654308 -25.079708772426653 -1.404703973696377 1.000000000000000
6.931055024025109 -25.045055475430566 -1.480521684177419 0.000000000000000
6.883032335470754 -25.018720774050283 -1.559127730823063 2.000000000000000
6.916153704777544 -25.089893543975556 -1.641432041288473 1.000000000000000
6.867972604691623 -25.063055119881113 -1.719525849781910 2.000000000000000
6.946216537977368 -25.146907791482093 -1.806200114315936 0.000000000000000
7.131370333296633 -25.997389612193444 -1.964865924010780 6.000000000000000
6.932058053484658 -25.141308970103765 -2.121842248144995 9.000000000000000
6.708467961403528 -24.455267408344284 -2.130657685103507 9.000000000000000
6.640828206637931 -24.000252662806613 -2.158953696617265 10.000000000000000
6.453992203590386 -23.448856303441627 -2.174853326056352 8.000000000000000
6.373754094507202 -22.956294474317357 -2.191784532118839 12.000000000000000
6.139290795222546 -22.220404049374718 -2.180301519190874 16.000000000000000
5.966655120050134 -21.526324697076479 -2.165427942363773 26.000000000000000
5.755680292365045 -20.867008116522737 -2.153665775247241 24.000000000000000
4.431942474126317 -15.988841177056759 -1.911657525732453 6.000000000000000
3.667697914073463 -13.295353547281112 -1.779871687956116 5.000000000000000
2.860741727999391 -10.356186111915340 -1.678430469954037 6.000000000000000
2.569708234399783 -9.368643336806343 -1.701177595830749 5.000000000000000
2.367045821829907 -8.567167911288919 -1.698725170060609 5.000000000000000
2.152118429898445 -7.844099272213619 -1.685290662056224 5.000000000000000
6.816850432290678 -25.123029242012834 3.883917701117107 1.000000000000000
7.158653074226587 -26.394736334720683 2.562097822453809 20.000000000000000
7.483818374622953 -27.609973339047656 1.616869095046336 20.000000000000000
7.548035306241333 -27.844282350487862 1.102589002878145 0.000000000000000
10.621208944130098 -39.060630412042386 0.239758363991813 6.000000000000000
10.643288190160114 -39.074240115658213 0.119927272266420 9.000000000000000
10.615414240160504 -39.204245135280253 -0.003438052356199 10.000000000000000
10.610168902440364 -38.860559287992942 -0.120696765278527 10.000000000000000
10.637359074916569 -39.198746536275635 -0.248780546834592 13.000000000000000
10.633789401964385 -38.862176195786148 -0.363484090211201 9.000000000000000
10.657541024942841 -39.184147150380788 -0.494615791144107 13.000000000000000
10.643018404102108 -39.060540655091721 -0.608842398980925 10.000000000000000
10.606369283605865 -39.157467826638523 -0.734694391989132 14.000000000000000
10.692568511732388 -39.155748535344422 -0.856938968897574 11.000000000000000
10.630247476126801 -39.159337972918919 -0.980822665228651 14.000000000000000
10.572172985113708 -38.620207267553823 -1.080785473960474 9.000000000000000
10.627631170918313 -39.059504256362459 -1.221951879137892 9.000000000000000
10.538288736795471 -38.655876027225403 -1.320402422959794 10.000000000000000
10.481106597752870 -38.673351713275693 -1.444107982742871 18.000000000000000
7.034832851874374 -25.809500493544185 -1.050973948951530 1.000000000000000
6.910951664922932 -25.498648124763356 -1.113907549508907 0.000000000000000
6.859718659946657 -25.250961329328359 -1.174989288473239 0.000000000000000
6.904705131858593 -25.209162444198775 -1.254732849432637 0.000000000000000
6.844512664735651 -25.137137022945673 -1.328041832676616 1.000000000000000
6.784031315252707 -25.064617696876471 -1.402219238648690 1.000000000000000
6.833632954626894 -25.041723642430419 -1.478814211313389 1.000000000000000
6.782706173546933 -25.003643012569263 -1.556404013671260 4.000000000000000
6.841929849147339 -25.175185387798852 -1.646928330686625 3.000000000000000
6.844338529805495 -25.128238601197246 -1.802792004498643 1.000000000000000
7.024567790937071 -25.971649903983476 -1.960623625647172 6.000000000000000
7.074618897630812 -25.942947335820776 -2.038940366175234 8.000000000000000
6.823079307802192 -25.095685234525785 -2.115192312082983 9.000000000000000
6.610081732042499 -24.439653080787284 -2.126995853561477 10.000000000000000
6.543967892798971 -23.984442492742190 -2.155172954018769 10.000000000000000
6.353061563907232 -23.409315892279839 -2.168386509907608 9.000000000000000
6.281568670055623 -22.943432231635942 -2.188191747319502 13.000000000000000
6.059874186301792 -22.245155706547884 -2.181077817000912 15.000000000000000
5.883506925259897 -21.527429691812447 -2.163449526820788 27.000000000000000
5.683951485431000 -20.901953270963510 -2.155863514593448 21.000000000000000
4.369240494201200 -15.988500410204104 -1.909683491279547 6.000000000000000
3.614469240781521 -13.292387950386368 -1.777580940286012 5.000000000000000
2.822684299457010 -10.369538108093474 -1.679330035713517 6.000000000000000
2.333320350685889 -8.571216222821922 -1.697958359160217 5.000000000000000
6.955997595219214 -26.029777825115097 3.998499060165916 26.000000000000000
7.187305042186262 -26.894095235662373 2.597536136365590 21.000000000000000
7.347501485985267 -27.492414428494119 1.610891802434585 27.000000000000000
10.622556131335509 -39.630900052371629 0.235571558513792 6.000000000000000
10.650779392451415 -39.667744216907145 0.113902912908517 9.000000000000000
10.628966040951328 -39.492487384716256 -0.130736071642510 9.000000000000000
10.647819138091378 -39.474698382644320 -0.376737513327593 10.000000000000000
10.650514640738537 -39.653852182088826 -0.625038569176497 10.000000000000000
7.131872843918777 -26.680345990210675 -0.763347227869129 0.000000000000000
7.138681617477664 -26.480686956204977 -0.839648731101334 0.000000000000000
10.529794988868030 -39.182770541961787 -1.343724181735181 16.000000000000000
7.052368020806156 -26.094315350416654 -0.985596671629510 1.000000000000000
6.949988716682918 -25.864429435240133 -1.053163845942199 1.000000000000000
6.797057870804997 -25.437210177077645 -1.109026574589651 0.000000000000000
6.750608357867461 -25.204822037137717 -1.170864800734046 0.000000000000000
6.803709027038496 -25.194113888524125 -1.252486355622617 1.000000000000000
6.757925168152650 -25.175940400184572 -1.329504273138291 3.000000000000000
6.688679277341009 -25.068452247702677 -1.401156000620311 2.000000000000000
6.732283281976765 -25.022589256686835 -1.475913194653724 2.000000000000000
6.681564291740651 -24.984325100085208 -1.553365861852293 5.000000000000000
6.763177869497005 -25.244838688372013 -1.651140767554752 5.000000000000000
6.796793907158193 -25.159749480409758 -1.726207683724696 2.000000000000000
6.747699611550590 -25.128456708473337 -1.801097129835413 1.000000000000000
6.731145360612584 -25.224277288654651 -1.889834404131833 1.000000000000000
7.020457988393814 -26.117396462037476 -2.053642615192583 9.000000000000000
6.725525022589527 -25.091997927211271 -2.112828975919724 10.000000000000000
6.445288916264405 -23.960559493088024 -2.150558849059876 12.000000000000000
6.264459214454581 -23.415567711530496 -2.167023834450389 7.000000000000000
6.191559600525649 -22.937910103771365 -2.185467849043273 11.000000000000000
5.967360980027655 -22.219628711016355 -2.176009552855380 15.000000000000000
5.801421838096934 -21.532072314731121 -2.161926575481344 28.000000000000000
5.624976174436618 -20.986658253645906 -2.164196181820394 16.000000000000000
4.310539659285346 -16.003273871111833 -1.909917519923580 6.000000000000000
3.568101648302605 -13.316034226576043 -1.779639286246477 4.000000000000000
2.781706763140093 -10.371323793040945 -1.677985513747171 5.000000000000000
2.534130336001493 -9.377176712348765 -1.701314087578637 5.000000000000000
2.301458964148585 -8.582703445689265 -1.698973858615595 5.000000000000000
2.120004474431364 -7.843631238967136 -1.683487820075650 5.000000000000000
6.833030371125817 -25.938178585934942 3.983133039322011 28.000000000000000
7.059083395565956 -26.794972980507076 2.587830962701382 23.000000000000000
7.232939804250306 -27.455562109022598 1.608086486750465 26.000000000000000
8.458117566919904 -31.752032560554909 1.182461705440542 12.000000000000000
8.433291498072581 -31.855012937870804 1.084643140936068 15.000000000000000
8.476357991304836 -32.083814552168974 0.689211404854457 4.000000000000000
8.442864966460562 -32.080313957971363 0.385816674079963 24.000000000000000
7.093378279604352 -26.929203519218319 -0.774128109438007 2.000000000000000
7.039391012126347 -26.489588480129168 -0.839268851309836 0.000000000000000
7.235585541928898 -27.420804098801089 -0.970881758263891 1.000000000000000
6.948432456271479 -26.079725091403375 -0.983825688894325 0.000000000000000
6.842941167011367 -25.833993321226906 -1.050361076624975 1.000000000000000
6.695553356976054 -25.421717385828217 -1.107002741685231 0.000000000000000
6.651810360571274 -25.196900330148747 -1.169230152820795 0.000000000000000
6.709889852376034 -25.205734344920227 -1.252067715964001 2.000000000000000
6.666183111215140 -25.195129526830009 -1.329594330577391 3.000000000000000
6.634132566910605 -25.014639670047508 -1.473896002484535 3.000000000000000
6.571737212272574 -24.929844847715557 -1.547539071121170 168.000000000000000
6.667191671486995 -25.248587030191501 -1.649903839729105 8.000000000000000
6.700080498400109 -25.159783333362604 -1.724580624486189 2.000000000000000
6.653123693215365 -25.136036231913490 -1.800084614923710 1.000000000000000
7.078427500466606 -26.731499216589949 -2.110217169571977 14.000000000000000
6.631043406067352 -25.099502484799643 -2.111629835313624 10.000000000000000
6.510887658718831 -24.419812580646763 -2.122926479455167 11.000000000000000
6.358739392045785 -23.982529824334733 -2.150905528982360 10.000000000000000
6.159151830095952 -23.355987109839528 -2.158415617701220 8.000000000000000
6.096703016639934 -22.912786170065353 -2.180551576546013 11.000000000000000
5.878056436834417 -22.205288554078980 -2.172283787717769 17.000000000000000
5.716412491079303 -21.524855977710867 -2.159017307050747 25.000000000000000
5.543888840954568 -20.986538978067120 -2.162138099988524 10.000000000000000
4.248866107095667 -16.006321899740367 -1.908489579222200 5.000000000000000
3.513948108023432 -13.308860225015110 -1.776721057932175 5.000000000000000
2.742628032956907 -10.380579014812783 -1.678132939187976 5.000000000000000
2.497585395786793 -9.381773754921058 -1.700622172308704 5.000000000000000
2.268623094965680 -8.590305388703786 -1.699095876578188 5.000000000000000
2.089749972454567 -7.850604405301191 -1.683599978454085 5.000000000000000
1.912770975498216 -7.241269507879435 -1.674197440322764 3.000000000000000
6.699134407332002 -25.799871014638391 3.961779165313811 25.000000000000000
6.961914995951752 -26.815201620140467 2.587159691380928 21.000000000000000
7.120680407225256 -27.426005894602536 1.605589217093748 31.000000000000000
8.341562307364031 -31.769359764722580 1.181765851968446 21.000000000000000
8.325292695257684 -31.907127237185406 1.084598599704983 14.000000000000000
8.414678817047417 -31.981165233134067 0.984236246325349 14.000000000000000
8.368884898901799 -32.002622065446147 0.885469245935794 20.000000000000000
8.394813013655995 -32.041934865655037 0.788012389188132 24.000000000000000
8.349750135304507 -32.066306641894528 0.688499997321996 23.000000000000000
8.420262078286690 -32.065459819207632 0.587028542662097 17.000000000000000
8.370501648704369 -32.074025388964976 0.487403945055685 31.000000000000000
8.393508230763228 -32.088387435211644 0.286181757029520 35.000000000000000
8.417079378247015 -32.118430599650758 0.187386115316668 22.000000000000000
8.370468598933034 -32.137246565273344 0.086957330263135 37.000000000000000
8.458586001957492 -32.204357500998995 -0.014866808019686 9.000000000000000
8.397294622158796 -32.168607685554960 -0.115148967218665 32.000000000000000
8.457543675876863 -32.265967909343274 -0.417062605000813 14.000000000000000
8.402369152343967 -32.252079123573495 -0.518238052897266 23.000000000000000
7.020918681805430 -26.934236576452371 -0.606627134445070 1.000000000000000
7.092803877069866 -26.982926615616467 -0.694934731944682 1.000000000000000
6.906605910787382 -26.366484925559035 -0.832378244086081 0.000000000000000
7.154657884673141 -27.515221375979728 -0.974927904225724 1.000000000000000
6.836779877345511 -26.033776311184919 -0.980328488033719 0.000000000000000
6.733242048795586 -25.791534645443555 -1.046873013042236 1.000000000000000
6.588379493438064 -25.382606130404774 -1.103540461940581 0.000000000000000
6.546305871364557 -25.161523384289332 -1.165842243006356 0.000000000000000
6.613114569016561 -25.205413080096307 -1.250858140465146 1.000000000000000
6.565572786895046 -25.179177554802802 -1.327216549239851 3.000000000000000
6.605224632539549 -25.118326072953487 -1.403513807058290 3.000000000000000
6.521398322551667 -24.948336185718617 -1.467417956817608 35.000000000000000
6.503887518384016 -24.985258208771882 -1.626560815394903 141.000000000000000
6.571956202397955 -25.035849732891265 -1.712313698966277 3.000000000000000
6.554661398036809 -25.127818903701360 -1.797691042045454 1.000000000000000
6.633310566872808 -25.220216164503768 -1.887704555927369 1.000000000000000
6.977332863152471 -26.736359424784172 -2.108759597421488 13.000000000000000
6.532687899899480 -25.091236999677722 -2.108865169656444 11.000000000000000
6.414858873854206 -24.411157355818560 -2.120058444670875 12.000000000000000
6.256481189252789 -23.942490554775947 -2.144624534094702 11.000000000000000
6.065016468977035 -23.338381659341415 -2.154485121257186 8.000000000000000
6.001116301557537 -22.883448273917907 -2.175193616788162 10.000000000000000
5.793786249603739 -22.209875045289085 -2.170799839704028 15.000000000000000
5.634442493980560 -21.528887868210120 -2.157485084236487 26.000000000000000
5.407707957081604 -20.766536698087243 -2.133156554524601 8.000000000000000
4.185301430303387 -16.001457478168025 -1.905952198662426 5.000000000000000
3.467440581345740 -13.332163685397951 -1.778773623164898 5.000000000000000
2.703515682822515 -10.389709711833104 -1.678278933933010 5.000000000000000
2.463805109699935 -9.397662163384418 -1.702406826791436 5.000000000000000
2.235759503400045 -8.597792677527996 -1.699216158427602 5.000000000000000
2.060373014042956 -7.861249004401861 -1.684668730481043 6.000000000000000
1.888162789873379 -7.262579280442662 -1.678390035915823 5.000000000000000
8.286724155569390 -32.030538240203278 1.186111946902803 12.000000000000000
8.254056562610844 -32.106271393374740 1.087149728125902 11.000000000000000
8.288532652259166 -31.963435827152992 0.983111760468096 26.000000000000000
8.277906674543678 -32.124344906814002 0.886086978250149 10.000000000000000
8.279196125046123 -32.066782339771919 0.787524685433497 21.000000000000000
8.239897275162779 -32.114274735011065 0.688153808090921 16.000000000000000
8.299676501645063 -32.071006521408393 0.586519989565237 24.000000000000000
8.258702433636659 -32.114292304058651 0.486947299709169 24.000000000000000
8.320266555481950 -32.078188285088309 0.385480710592779 31.000000000000000
8.281684879970095 -32.128744511409963 0.285653327936578 24.000000000000000
8.296271258020431 -32.123963550593317 0.187157964930503 23.000000000000000
8.256446032041795 -32.169766294136927 0.086454957786586 23.000000000000000
8.324733779192380 -32.159633321573381 -0.014151839395775 29.000000000000000
8.281233327627337 -32.193450533311754 -0.115525540760048 24.000000000000000
8.350393373273690 -32.186604561550325 -0.215713721840936 30.000000000000000
8.303384014883367 -32.204420367371085 -0.318104802872096 37.000000000000000
8.326405124874977 -32.232878921050826 -0.415782807582150 29.000000000000000
8.284022488914701 -32.269195455704718 -0.518330605342442 31.000000000000000
7.023252392210749 -27.179813312598423 -0.531672077314587 2.000000000000000
6.912467381858717 -26.911665943048394 -0.605130376077625 0.000000000000000
7.136356096128572 -27.507465451650631 -0.800152376176427 1.000000000000000
7.035461060780285 -27.458247012541023 -0.971046416123997 1.000000000000000
6.712865181205907 -25.937008140351807 -0.974027056262591 0.000000000000000
6.628763261216879 -25.768007190129222 -1.044512209462400 1.000000000000000
6.450765282438748 -25.164468589034545 -1.164946978016691 0.000000000000000
6.504761900324025 -25.158277288788600 -1.246499237395034 2.000000000000000
6.434246851976046 -25.038936958234807 -1.316074115403245 4.000000000000000
6.493269352740477 -25.055713315501471 -1.397584288776030 2.000000000000000
6.432431039409234 -24.974436266579744 -1.468064456011756 43.000000000000000
6.408942242945578 -24.988081062617717 -1.625310882884513 255.000000000000000
6.497189507050936 -25.120114758369724 -1.717986383942024 3.000000000000000
6.457299964365051 -25.123097487396276 -1.795635836297998 1.000000000000000
6.529749571880456 -25.192595880807566 -1.883432164076116 1.000000000000000
6.876288071700229 -26.740849782883149 -2.107296395894700 9.000000000000000
6.430621933482032 -25.067149266654948 -2.104532996887923 11.000000000000000
6.319936852631906 -24.405999632741427 -2.117587346896874 11.000000000000000
6.158431944297170 -23.917480849805319 -2.139993245382091 11.000000000000000
5.976821726936188 -23.343587641898651 -2.153106512286517 7.000000000000000
5.912562758662793 -22.880732575388876 -2.172890994762311 9.000000000000000
5.703797587743418 -22.191010860393163 -2.166614440221910 15.000000000000000
5.569794190539458 -21.602022318241783 -2.164233741025692 18.000000000000000
5.323706777027168 -20.750203954984791 -2.129197101390058 5.000000000000000
4.122766764391559 -16.000189528705523 -1.903963346080614 5.000000000000000
3.415224639948901 -13.332285579948804 -1.777093331454588 5.000000000000000
2.663457409220586 -10.394881822678764 -1.677675331691366 5.000000000000000
2.428122317538877 -9.405825726292582 -1.702537720550946 5.000000000000000
2.202868589763562 -8.605165215620987 -1.699334703008879 4.000000000000000
2.027385013913513 -7.856673314955900 -1.681903010338705 6.000000000000000
6.629466269525984 -25.915153437243269 3.973409175377012 30.000000000000000
7.049621686984673 -27.578391218621416 2.642382407981400 7.000000000000000
7.034785158223857 -27.500737405095158 1.607162079229357 12.000000000000000
8.203101580116654 -32.183068657252896 1.188221106222839 13.000000000000000
8.199426286613072 -32.092684002283825 0.984123659879400 14.000000000000000
8.161140083154585 -32.212432631129246 0.486453962789100 4.000000000000000
8.215229268715246 -32.145461384822617 0.384887265174319 18.000000000000000
8.188951881357992 -32.246363285811256 0.284601925244126 4.000000000000000
8.201573371655861 -32.233860968415200 0.185909230379175 11.000000000000000
8.163397249307318 -32.287316781168585 0.084861620854551 7.000000000000000
8.215471645137169 -32.211398726345259 -0.014971024980571 19.000000000000000
8.189132726433611 -32.314948062974238 -0.117736939521103 7.000000000000000
8.237191442053774 -32.222933988402886 -0.216332564415084 26.000000000000000
8.214209382325548 -32.337612025678986 -0.321177969618714 10.000000000000000
8.227435101376797 -32.327331113907462 -0.418081829504740 15.000000000000000
8.192510545420427 -32.394568922438481 -0.521794487159423 6.000000000000000
8.252120463530618 -32.348111672501780 -0.621310365346159 3.000000000000000
6.819545177501396 -26.950773527713892 -0.606125519736840 0.000000000000000
6.980378044332538 -27.479924631040294 -0.885764382178333 0.000000000000000
6.930089141393012 -27.455087631906267 -0.970001414248297 1.000000000000000
6.616608015800269 -25.948269844039309 -0.973742304866232 1.000000000000000
6.515933424471614 -25.709175710930456 -1.040103566627486 1.000000000000000
6.479632490239677 -25.335316828325542 -1.099594028557325 0.000000000000000
6.349579754347335 -25.143799007794815 -1.162546660217885 0.000000000000000
6.395858763206180 -25.106828290358109 -1.241871586259059 1.000000000000000
6.352544969100904 -25.095728463095892 -1.318883129346005 2.000000000000000
6.392389125065696 -25.035246325661475 -1.394791007770361 5.000000000000000
6.335724797629505 -24.969243925436306 -1.466328620028336 63.000000000000000
6.317851431374468 -25.006045736845206 -1.625337373647051 255.000000000000000
6.397984410884744 -25.107433116627544 -1.715345188771165 2.000000000000000
6.369561778059746 -25.156700717862993 -1.797014406072228 1.000000000000000
6.444678715910050 -25.238055729704087 -1.885918780522102 1.000000000000000
6.770529142419781 -26.725633806347599 -2.103990180501799 10.000000000000000
6.333542377697404 -25.061997109295667 -2.102147394699966 11.000000000000000
6.209833715580692 -24.338675714164626 -2.108670778703325 12.000000000000000
6.070131228801695 -23.930711468332547 -2.139495335741679 11.000000000000000
5.824098919358956 -22.877687757497203 -2.170583359876356 10.000000000000000
5.641436531976883 -22.283753929221625 -2.175459609791623 11.000000000000000
5.495233863314682 -21.636387230374570 -2.166376206161164 9.000000000000000
5.231416450369855 -20.698817429687978 -2.120981433871962 6.000000000000000
4.064021364690897 -16.014102674395886 -1.904184322638062 5.000000000000000
2.968131574444042 -11.673860043921497 -1.737127571743160 6.000000000000000
2.389721168194385 -9.402435385201617 -1.700188463071943 5.000000000000000
1.997081490085258 -7.863323127335610 -1.682010269813286 6.000000000000000
1.861679718668310 -7.276281064156336 -1.680535628130021 6.000000000000000
6.501494943450191 -25.795116754420878 3.954569667540348 22.000000000000000
6.818688920657125 -27.063853159376720 2.601550058209761 6.000000000000000
6.767135756971700 -26.978869032920482 -0.523176526716670 0.000000000000000
6.718895644573133 -26.958494878828137 -0.605866391267012 1.000000000000000
6.902285605498824 -27.466034534861716 -0.713881767473509 1.000000000000000
6.604657517266915 -26.366312461369144 -0.830035074617086 0.000000000000000
6.521298594511576 -25.963065817428987 -0.973667475788545 1.000000000000000
6.418656227775930 -25.711977361034545 -1.039318285155504 1.000000000000000
6.386481807019716 -25.349642377093627 -1.099462595571706 0.000000000000000
6.253298366221613 -25.142143831698871 -1.161390455971471 0.000000000000000
6.317616026523231 -25.179033854686580 -1.245624211420251 2.000000000000000
6.271460430559083 -25.156154765509271 -1.321963452727528 4.000000000000000
6.292675036433868 -25.018266691027453 -1.392277489711026 5.000000000000000
6.241952678075715 -24.975320288580445 -1.465479073195974 114.000000000000000
6.290544825420688 -24.949638501500708 -1.544865846961745 255.000000000000000
6.222967356638879 -25.008186039857442 -1.624077092546997 255.000000000000000
6.283847995741929 -25.032409423824461 -1.707378523644875 3.000000000000000
6.276975898761567 -25.170652987883386 -1.796669258205817 1.000000000000000
6.343295817245096 -25.217442589742554 -1.882348469411382 1.000000000000000
6.659320722612109 -26.686791692224631 -2.098472655923609 11.000000000000000
6.233770882837097 -25.044874321505141 -2.098584575601189 11.000000000000000
6.127602689884506 -24.383021003893891 -2.111421306250751 11.000000000000000
5.974318726077678 -23.912705335702558 -2.135681130614037 10.000000000000000
5.886774008633445 -23.340745336171807 -2.150870867993468 8.000000000000000
5.733849683991889 -22.866586926325791 -2.167395913245432 10.000000000000000
5.568239092990502 -22.333820774630556 -2.179355370751364 8.000000000000000
5.345845567586791 -21.361522135092976 -2.131682508108882 8.000000000000000
5.143257435007088 -20.662480713923326 -2.114647851633423 6.000000000000000
4.006145920329967 -16.031664067168293 -1.904955354658104 5.000000000000000
3.366717455155801 -13.347589016457373 -1.777897879867370 5.000000000000000
2.623393360887021 -10.399910925750998 -1.677069560907221 5.000000000000000
2.355785287064701 -9.417966093919677 -1.701967710977401 5.000000000000000
2.169070897663863 -8.608624328241046 -1.698558962758751 5.000000000000000
1.968480224832658 -7.877439772777912 -1.684032604963602 6.000000000000000
1.834261149009049 -7.286126227619249 -1.681656920599141 6.000000000000000
6.399560705515696 -25.778693216486491 3.949224295551645 23.000000000000000
6.689726676738035 -26.955257133223718 2.591289120908766 18.000000000000000
8.000165467607927 -32.362427986982773 1.792748025808082 33.000000000000000
6.802130539772195 -27.617343215418014 -0.372595822485340 1.000000000000000
6.654265754756957 -26.935870511684769 -0.521083703472570 0.000000000000000
6.607131942699871 -26.919200288073963 -0.603726773017613 0.000000000000000
6.584529434062307 -26.580413025390904 -0.674887325836889 0.000000000000000
6.778060715133567 -27.507767781730085 -0.885553648113242 1.000000000000000
6.415977225132302 -26.172995070868346 -0.901199900652688 0.000000000000000
6.425963849360107 -25.977522496505951 -0.973587496832832 1.000000000000000
6.318652651556541 -25.702770380795343 -1.037846728613097 1.000000000000000
6.290500613150047 -25.351972322716872 -1.098607282978242 0.000000000000000
6.224980073822529 -25.192769893858053 -1.245439096694156 3.000000000000000
6.165973914034898 -25.115401139285712 -1.317919469561254 8.000000000000000
6.202483830813886 -25.039698218895818 -1.392615571827682 10.000000000000000
6.157483711163402 -25.019853345535680 -1.467597466235994 5.000000000000000
6.202484865696717 -24.978798180474058 -1.545818691093048 25.000000000000000
6.215882142569960 -25.146818530343019 -1.715696654929465 3.000000000000000
6.179746664486137 -25.164892925846271 -1.794598279001872 1.000000000000000
6.250519663014612 -25.231302221252026 -1.881977069138121 1.000000000000000
6.553094051384988 -26.666879282039382 -2.094786313028461 11.000000000000000
6.429250522350679 -25.910739611145203 -2.107765540451768 10.000000000000000
6.025630765050813 -24.345814258112298 -2.105711005665907 10.000000000000000
5.876857856592789 -23.886592520369284 -2.131033034634201 10.000000000000000
5.802399616294416 -23.360770273310166 -2.151186910910856 7.000000000000000
5.645595929846698 -22.862879167881985 -2.165078180939626 10.000000000000000
5.466275813933938 -22.263799237981388 -2.169311517884546 9.000000000000000
5.270177603654616 -21.387401931381607 -2.132892529199147 6.000000000000000
5.049017224001672 -20.598752032613262 -2.105003376950539 5.000000000000000
3.942758224939858 -16.025887223398339 -1.902404110194446 5.000000000000000
3.316334263932772 -13.355033146840661 -1.777455937244693 5.000000000000000
2.584210170207105 -10.408625343098185 -1.677209249991150 5.000000000000000
2.320897688030041 -9.429568442849778 -1.702919079360187 5.000000000000000
2.135273306818963 -8.611962407056867 -1.697781387241861 4.000000000000000
1.938101746910283 -7.883878747920718 -1.684136536633272 6.000000000000000
1.802560238166099 -7.277007875516455 -1.677661382317829 5.000000000000000
6.317991849291753 -25.846830263948352 3.954872961147029 29.000000000000000
6.623419920100367 -27.106144857394625 2.600529279471517 19.000000000000000
7.895589055971385 -32.436438950554198 1.794120282999772 8.000000000000000
6.557424816906841 -26.958552553142454 -0.521441550669917 1.000000000000000
6.492977732663459 -26.867786731500242 -0.601110923104817 0.000000000000000
6.511095655017255 -26.696177631142000 -0.679277707355690 0.000000000000000
6.925023926879145 -28.380382380886161 -0.837569330371943 1.000000000000000
6.678256069731486 -27.526989654577072 -0.885728597870314 0.000000000000000
6.330604987973246 -25.991639889881370 -0.973502369027689 1.000000000000000
6.205988794062737 -25.638758866407940 -1.033190830639113 1.000000000000000
6.194578011269238 -25.353969867870354 -1.097748736783370 0.000000000000000
6.160796003177580 -25.155669059024095 -1.161229093870719 0.000000000000000
6.122230964206710 -25.163464925861796 -1.242366916283774 7.000000000000000
6.084547876591304 -25.175240741442860 -1.320990935202692 4.000000000000000
6.113136290735698 -25.064697257569133 -1.393234671870717 5.000000000000000
6.066382331501392 -25.036925055489764 -1.467629593556878 6.000000000000000
6.116137339169059 -25.015435874163682 -1.547387939035639 18.000000000000000
6.126111565400090 -25.171860339038947 -1.716365064496359 3.000000000000000
6.100844426713173 -25.236365623798502 -1.799406130886213 1.000000000000000
6.155884842915852 -25.237077826155126 -1.880888364490154 0.000000000000000
6.437048334256641 -26.603907243946050 -2.087049244371865 11.000000000000000
6.136957184123647 -25.038989595815224 -2.096187838108266 10.000000000000000
5.930397537541380 -24.335333381996620 -2.102815187098791 10.000000000000000
5.782378157541403 -23.871720855427029 -2.127621771928591 10.000000000000000
5.704199700953820 -23.322449417727523 -2.145105811712919 7.000000000000000
5.551968917329748 -22.835617878470263 -2.160129914502221 9.000000000000000
5.355815480313965 -22.154647169997450 -2.154764465989964 7.000000000000000
5.188954584991893 -21.389806520479009 -2.131335130116685 5.000000000000000
4.868448712214611 -19.972560980564253 -2.089156823827174 7.000000000000000
3.878564731317732 -16.016013797074240 -1.899296001474994 5.000000000000000
3.268609128786083 -13.373847278597735 -1.778877395981931 5.000000000000000
2.542377266296098 -10.405708854081077 -1.675103840972012 5.000000000000000
2.284242736551459 -9.433408964859684 -1.702215939208664 5.000000000000000
2.104889201159383 -8.630392903808396 -1.700572310460152 5.000000000000000
1.906025959433683 -7.882632251469929 -1.682322218532337 6.000000000000000
1.777610845149917 -7.297980765061595 -1.681848913408349 6.000000000000000
6.245058896848384 -25.953365072483169 3.965519428255662 27.000000000000000
6.522501996506158 -27.113181388707545 2.599008581879282 23.000000000000000
6.590146265933063 -27.348084632029767 -0.448951692916385 1.000000000000000
6.414203125217301 -26.714469840455656 -0.679457632783923 0.000000000000000
6.832179925785326 -28.442904504934077 -0.839739990930198 1.000000000000000
6.780086270238511 -28.413707304045595 -0.928634387554312 1.000000000000000
6.325414127448040 -26.210407003766342 -0.902359367118672 0.000000000000000
6.227064916629995 -25.970408205195582 -0.971474124536877 1.000000000000000
6.126272871560837 -25.714353285631027 -1.036702357069706 1.000000000000000
6.112343877016859 -25.413938306497933 -1.100469979533281 0.000000000000000
6.078278206001930 -25.211618735665372 -1.163813390914893 1.000000000000000
6.033317079857347 -25.192076016799341 -1.243222349610876 3.000000000000000
6.019158315785539 -25.069959475509027 -1.392419891627046 4.000000000000000
5.973434095053831 -25.045908503921542 -1.467062590735889 8.000000000000000
6.024160389911188 -25.028484770361132 -1.547095847202571 25.000000000000000
6.074271013555026 -25.186118838274762 -1.635966245914295 5.000000000000000
6.016375587271766 -25.111175900451222 -1.709710795559273 2.000000000000000
5.994603126426242 -25.191117156626508 -1.793882490855006 0.000000000000000
6.104710690140390 -25.428751474604219 -1.896891819857550 0.000000000000000
6.329610429825232 -26.575388907676274 -2.082614641490022 11.000000000000000
6.039350692987926 -25.028863519856351 -2.093394388728127 11.000000000000000
5.831701797596567 -24.308990110819487 -2.098303095106460 10.000000000000000
5.682696588657862 -23.833233258820570 -2.121719553059328 10.000000000000000
5.608142994205203 -23.291484925710815 -2.139871208455295 7.000000000000000
5.460393997284692 -22.815743931498897 -2.156051717463731 10.000000000000000
5.251533046322692 -22.068246716481898 -2.142908190345642 8.000000000000000
5.090817011899005 -21.318355183709347 -2.121023166431083 6.000000000000000
4.964285423478631 -20.573314669195966 -2.100078021498578 5.000000000000000
3.813606838086554 -16.002035050788145 -1.895630891443018 5.000000000000000
3.219036076470156 -13.384795370924612 -1.779052259135246 5.000000000000000
2.504890319103190 -10.421804127686432 -1.676734422999864 5.000000000000000
2.248429348868600 -9.440945581954583 -1.702337343450103 5.000000000000000
2.069359996706388 -8.625885713055663 -1.698005878130426 4.000000000000000
1.749252887964260 -7.303762215866881 -1.681942768698756 6.000000000000000
6.191039944694985 -26.144800803418509 3.987154587531552 28.000000000000000
6.425195116613245 -27.135403446486642 2.598656753781059 24.000000000000000
6.502379975685170 -27.678089981773887 -0.373441850800028 2.000000000000000
6.381964243423373 -26.827602054814452 -0.598957708989285 0.000000000000000
6.313677530115744 -26.716841290497392 -0.678958930739294 0.000000000000000
6.724635612071082 -28.442833507627032 -0.839033108395334 1.000000000000000
6.665561045643480 -28.382291659809717 -0.926317714739119 1.000000000000000
6.224779513504864 -26.204698628388122 -0.901276376003741 0.000000000000000
6.120176461512201 -25.933196300726998 -0.968576973981567 1.000000000000000
6.030133312488555 -25.719624896727890 -1.036122521351131 1.000000000000000
6.013654146684144 -25.403608203853402 -1.098884324536801 0.000000000000000
5.979313884497228 -25.197287734350720 -1.161891493737148 0.000000000000000
5.942494843064877 -25.212601171445989 -1.243548598423509 2.000000000000000
5.980325553120142 -25.137621094524377 -1.317209433110284 2.000000000000000
5.925215720965075 -25.074869160195171 -1.391598620747323 4.000000000000000
5.885812709240523 -25.077893330514645 -1.468275275461891 8.000000000000000
5.936634991836897 -25.060638653669972 -1.548346493027964 11.000000000000000
5.983434301583973 -25.206786721373074 -1.636295563994365 9.000000000000000
5.918697191637001 -25.100556888894168 -1.707374573308563 1.000000000000000
6.427451709066372 -27.255180231949076 -2.062872225230061 8.000000000000000
6.226874640915145 -26.565872397605585 -2.080012346543389 11.000000000000000
5.938311209380450 -25.002860059996308 -2.089033051066276 10.000000000000000
5.736812694919849 -24.297782269419464 -2.095396213741334 10.000000000000000
5.591292806274425 -23.829266261937313 -2.119540010614407 10.000000000000000
5.525718672828668 -23.318278543340870 -2.141023793069857 5.000000000000000
5.348690475046471 -22.706360702643071 -2.141903307661348 8.000000000000000
5.005546850868980 -21.300739723999733 -2.117153335771417 5.000000000000000
4.652669333127586 -19.695554989324695 -2.050960836176619 13.000000000000000
3.751388274945883 -15.999400734733289 -1.893621695379331 4.000000000000000
3.169423784047624 -13.395565262862283 -1.779224174762726 5.000000000000000
2.466473158070631 -10.433942163103358 -1.677615620458126 5.000000000000000
2.039671383900573 -8.647919251424842 -1.701686563434504 5.000000000000000
1.876450489233182 -7.892653470615285 -1.683381544383659 6.000000000000000
1.720066545862204 -7.305662871156285 -1.681011945497152 6.000000000000000
6.537258733986381 -28.108955990280066 4.237475732874349 14.000000000000000
6.265186854160341 -26.881046536248427 2.577664370087620 2.000000000000000
6.406434458212862 -27.715840060483025 -0.374277612033248 2.000000000000000
6.250592156329436 -26.954368020018286 -0.519878191863517 1.000000000000000
6.280184224366986 -26.825951606071953 -0.598361761017603 0.000000000000000
6.622470269959330 -28.465751683659363 -0.839398219812334 1.000000000000000
6.560107706949183 -28.389412415504935 -0.925911694077019 0.000000000000000
6.155237728451793 -26.334961000863622 -0.907309940808802 0.000000000000000
6.021534661841540 -25.930643054199951 -0.967613633639001 0.000000000000000
5.935380000841896 -25.482479151395086 -1.102792480554822 1.000000000000000
5.903463570683103 -25.283812590494975 -1.166469352626407 1.000000000000000
5.896307557617994 -25.431399833247486 -1.257249661363210 47.000000000000000
5.918006195696492 -25.282485257366403 -1.326300415028089 5.000000000000000
5.840095096571736 -25.118368848885051 -1.393632885041987 3.000000000000000
5.800656327193213 -25.121258164039272 -1.470375991824843 5.000000000000000
5.854239081992891 -25.115833580938833 -1.551450192823684 4.000000000000000
5.869604226981651 -25.126037792356438 -1.628282456562449 3.000000000000000
5.831672643331118 -25.136237400282166 -1.709025599457763 1.000000000000000
5.906419990103195 -25.223165060524103 -1.795238682343193 0.000000000000000
6.328534025788410 -27.273182051755477 -2.062861791860861 8.000000000000000
5.840166041615554 -24.988113810912626 -2.085838097266180 10.000000000000000
5.643819742411916 -24.293983468792419 -2.093289535601675 11.000000000000000
5.497377492627610 -23.813309396514217 -2.116111762475726 10.000000000000000
5.412500473431540 -23.209021053783381 -2.127251967987724 5.000000000000000
5.242168568534869 -22.615884883152603 -2.129935623382579 8.000000000000000
5.161968171252712 -22.043422046858577 -2.138241227937483 7.000000000000000
4.909207966709512 -21.232385670781390 -2.107290067829090 6.000000000000000
4.577539681461036 -19.695790845023424 -2.049274708290152 19.000000000000000
3.119772733372315 -13.406167042311587 -1.779393798835523 5.000000000000000
2.427166566018964 -10.442108674795719 -1.677747020292573 5.000000000000000
2.214247272724623 -9.456006803771650 -1.704109506125222 5.000000000000000
2.004971861081557 -8.646980365782140 -1.700009194594769 5.000000000000000
1.843584722010610 -7.887382237009422 -1.680605265790380 6.000000000000000
1.690885672312319 -7.307458850679904 -1.680079535948497 6.000000000000000
6.405488496242395 -27.991764890594979 4.219149850626205 13.000000000000000
6.192135796009982 -27.007497988519468 2.585176722475266 20.000000000000000
6.351063743497959 -27.738780758536940 -0.287612108412735 2.000000000000000
6.305118187030964 -27.729844934349082 -0.374382604332041 2.000000000000000
6.265392506258832 -27.281763571566277 -0.445488699946327 1.000000000000000
6.151951395489528 -26.967836242680825 -0.519925156547553 1.000000000000000
6.200340930294808 -26.921432787652563 -0.601671186251684 0.000000000000000
6.268226254050420 -27.418762633196529 -0.708098450960299 0.000000000000000
6.514138718790893 -28.461011413594807 -0.838499976962321 1.000000000000000
6.049650539926100 -26.566608249630765 -0.835551385786204 0.000000000000000
