# This PCD file was generated using the MATLAB® pcwrite function
# from Computer Vision Toolbox®.
# .PCD v.7 - Point Cloud Data file format
VERSION .7
FIELDS x y z intensity
SIZE 8 8 8 8
TYPE F F F F
COUNT 1 1 1 1
WIDTH 641
HEIGHT 1
VIEWPOINT 0 0 0 1 0 0 0
POINTS 641
DATA ascii
18.349055083062566 25.549667112756410 -1.296385213663830 11.000000000000000
13.123943626521186 18.400453156953610 -1.040801544289792 16.000000000000000
7.804606310302103 10.913255290897462 -0.629074393834396 5.000000000000000
7.767227232026417 10.828437902970103 -0.660681707837494 22.000000000000000
7.692958459074473 10.772232703283402 -0.915874229315859 26.000000000000000
7.706211114849796 10.793384566993181 -1.145019525487666 25.000000000000000
7.723990076099111 10.820574366521820 -1.378322432393586 22.000000000000000
8.071717208616436 11.289277900694541 -1.662249535109480 5.000000000000000
7.280204359830787 10.162825845474254 -1.689324449604364 6.000000000000000
6.649407360708729 9.263302175084286 -1.683128509372734 6.000000000000000
5.654004286413527 7.899966772993269 -1.672988816441491 9.000000000000000
4.091873071617390 5.708989956207349 -1.658787133831579 0.000000000000000
3.039015219597937 4.239604773242407 -1.645050846887018 0.000000000000000
13.409015391459505 18.594640933405742 3.983433172824758 17.000000000000000
12.188981959634058 16.853806041682432 1.847162973423289 16.000000000000000
12.411475598310515 17.272184613651255 1.262318462020148 9.000000000000000
14.352095053923879 19.903450085120724 0.953411938165376 6.000000000000000
20.532053769755322 28.425332457895919 -0.385417875156766 1.000000000000000
20.494408971209996 28.489979743064652 -0.486954520284000 12.000000000000000
20.556431096585047 28.486188178937986 -0.592305519926935 8.000000000000000
20.583783998058585 28.566660254530689 -0.693161990244931 4.000000000000000
20.583935355004844 28.478614646743395 -0.796349489731009 11.000000000000000
20.533732638506880 28.525939841711271 -0.897702987102941 10.000000000000000
20.562436833521701 28.475846177673709 -1.000617146487249 12.000000000000000
7.898901248310165 10.960106848640992 -0.406622917155755 7.000000000000000
7.919429308362436 10.952145337107558 -0.446981739343260 0.000000000000000
18.981800301176882 26.389504468901642 -1.167278367058542 21.000000000000000
18.866900500478192 26.151123631536770 -1.250194765068734 14.000000000000000
18.467011842871869 25.527761866143280 -1.300352692679619 6.000000000000000
13.119837764389928 18.265131102114069 -1.033658479185492 15.000000000000000
7.804785026550179 10.838711330057746 -0.624231888109160 4.000000000000000
7.736900123040866 10.753459652930120 -0.690878814269825 24.000000000000000
7.697560498949387 10.704514435091406 -0.910517611026547 25.000000000000000
7.706175093699835 10.719361078344003 -1.137743101199974 29.000000000000000
7.728888643606488 10.752924451825669 -1.371170025426740 23.000000000000000
8.099667082306309 11.248905457339427 -1.660114099144436 5.000000000000000
7.313719255961259 10.137846061003200 -1.689698991614998 5.000000000000000
6.682165282285220 9.243636723089134 -1.684254341308521 6.000000000000000
5.677262572642678 7.877585473612774 -1.672364682773118 9.000000000000000
2.978124748291583 4.138956605393036 -1.592724397491473 0.000000000000000
13.391884985860091 18.440457054577408 3.961998840145447 18.000000000000000
12.257973896806597 16.827620828997574 1.847844802522861 12.000000000000000
12.486608922283006 17.251695447777585 1.262689481424364 6.000000000000000
14.445936749127949 19.889020949215670 0.953481371825971 8.000000000000000
20.567453644402473 28.270430474370670 -0.383784856859141 1.000000000000000
20.532590386842820 28.338305413895142 -0.485132933718234 11.000000000000000
20.575492169860471 28.308652457790863 -0.589171348323389 13.000000000000000
20.641086304280069 28.440479627688710 -0.691868502911898 8.000000000000000
20.607562299548238 28.307519530669680 -0.792742609101884 6.000000000000000
20.560119274587528 28.358106564936534 -0.893895697175259 3.000000000000000
20.588523455129828 28.308025870253779 -0.996453768599232 12.000000000000000
20.602316123942142 28.442137288654173 -1.101315235928251 8.000000000000000
7.921899026934597 10.880502265951472 -0.443304755819742 0.000000000000000
19.022043675783909 26.256109385850095 -1.163866540510093 19.000000000000000
18.927622656236647 26.047095065628390 -1.248513570200017 14.000000000000000
7.896460151969140 10.891480534791592 -0.557610305296774 0.000000000000000
7.797306201438233 10.754771725336882 -0.618338538814907 5.000000000000000
7.768887558031198 10.683038011054093 -0.650992104688412 23.000000000000000
7.743647219310081 10.688800635040279 -0.686800607229361 22.000000000000000
7.708987256487075 10.646394599731030 -0.906487570448452 25.000000000000000
7.712903677870321 10.654950223652735 -1.131999877738955 30.000000000000000
7.738186617064737 10.691674509907953 -1.365178150140041 23.000000000000000
8.134582555339154 11.217910610260065 -1.659893104426259 5.000000000000000
7.337599613262818 10.100220917954855 -1.687208197835395 5.000000000000000
6.710086122624574 9.217637661500520 -1.683814516624035 6.000000000000000
5.705192742363321 7.861292038064645 -1.673571927266651 8.000000000000000
13.461668550969282 18.403576182881089 3.963139231716736 18.000000000000000
12.322117717927277 16.794782789535525 1.847998673986760 14.000000000000000
12.506575579367757 17.157322622668779 1.259740934192515 0.000000000000000
14.097817549989669 19.294464600950754 1.217320714275686 23.000000000000000
20.592461248682362 28.102795441974628 -0.381736582009947 1.000000000000000
20.567579089229973 28.183497435971404 -0.483195381087733 12.000000000000000
20.595948775483805 28.134549674436592 -0.586161077929954 10.000000000000000
20.654815360891146 28.256505244779504 -0.688082799677182 14.000000000000000
20.680434566114258 28.203893125264649 -0.792297061494962 4.000000000000000
20.635630000362120 28.257808743958300 -0.893493847679720 5.000000000000000
20.608914118054194 28.133958582668988 -0.991940001851942 5.000000000000000
7.927826895121989 10.848646774949328 -0.402400801262888 0.000000000000000
7.906961602636701 10.786814392529061 -0.437583054105695 0.000000000000000
19.056816608863009 26.116334479770842 -1.160036361886339 22.000000000000000
18.973518783902836 25.923751559211887 -1.245507145563085 15.000000000000000
18.513618362038681 25.409159054807340 -1.297347754225004 8.000000000000000
7.803860651800027 10.690001056167850 -0.614541739656375 6.000000000000000
7.770307924872850 10.612098008903400 -0.646325785857808 24.000000000000000
7.740365729203913 10.611551271357689 -0.681228908285254 23.000000000000000
7.705623351333068 10.569349600192401 -0.899800725512421 28.000000000000000
7.716868393192013 10.587452542792812 -1.125744000958767 29.000000000000000
7.736484537865315 10.544245316200184 -1.348543294124350 26.000000000000000
8.188540399966296 11.211909950745119 -1.664777371041968 4.000000000000000
7.375687638771033 10.081282357925781 -1.689019827947894 5.000000000000000
6.735503139405891 9.188445581492230 -1.682592227321689 6.000000000000000
5.728290523255922 7.838747397942340 -1.672950362969426 9.000000000000000
13.469348802341601 18.284454356526531 3.948418726312856 18.000000000000000
12.337847991601386 16.698157599296771 1.842916979648845 14.000000000000000
13.846670591571453 18.810762053610205 1.335690313367838 17.000000000000000
14.009165893688371 19.041388002667112 1.208890566116368 26.000000000000000
20.630952866869805 27.954513999168114 -0.380308360981288 1.000000000000000
20.613706803436710 28.044789338575043 -0.481833589859695 12.000000000000000
20.641819172564453 27.995827022249358 -0.584548595987186 4.000000000000000
20.679493955927011 28.088752399938386 -0.684987658908886 9.000000000000000
20.726418071984316 28.064943653824443 -0.790195755356290 9.000000000000000
20.658012306777131 28.086919742231224 -0.889522758863422 11.000000000000000
20.700300128416419 28.055974496201550 -0.992652901327206 4.000000000000000
7.951588979788926 10.805596507327254 -0.401409237548707 0.000000000000000
7.874387603915546 10.671253343566748 -0.429814179106159 0.000000000000000
19.088452458982481 25.973419778292019 -1.155996721981544 20.000000000000000
19.021181323502169 25.803592363831306 -1.242722444794418 14.000000000000000
7.888465655948610 10.732779868699518 -0.547644276347911 0.000000000000000
7.810056241216278 10.625310938742798 -0.610743880980267 7.000000000000000
7.776197877801100 10.547566455641677 -0.642382087423953 23.000000000000000
7.746351452747509 10.547084662368404 -0.677148147107680 24.000000000000000
7.709085351376273 10.501917705208252 -0.894440290051584 26.000000000000000
7.721230391699996 10.449630506141920 -1.112716086156248 30.000000000000000
7.742268469190402 10.480118033837742 -1.341966842181980 26.000000000000000
8.223302360375250 11.180622858922662 -1.664561003976564 4.000000000000000
7.406505250807236 10.052855950872674 -1.688682553511253 5.000000000000000
6.768027369113171 9.168465356796789 -1.683723098013597 6.000000000000000
5.756103424327990 7.822259551532921 -1.674160675545643 8.000000000000000
13.524277093983660 18.228390730254183 3.945895365324563 19.000000000000000
12.423452391975440 16.693497108466588 1.845418751831574 16.000000000000000
13.912869573945661 18.765993697590396 1.335120768033351 25.000000000000000
13.943114451221559 18.820993357660861 1.201675274446719 22.000000000000000
20.654189454252208 27.787145784330541 -0.378257188505080 1.000000000000000
20.649492557486763 27.893327989769126 -0.480009919886672 12.000000000000000
7.952208877582811 10.695362932304354 -0.207129042397766 4.000000000000000
20.729741504876301 27.956288644500852 -0.683416291477942 3.000000000000000
20.740320979314742 27.884577407753348 -0.786132768461602 12.000000000000000
20.684261446343513 27.922594753675476 -0.885874359785396 11.000000000000000
20.721507979517938 27.885225486008743 -0.988312701881241 12.000000000000000
8.024078616495782 10.825546867860000 -0.406020096805231 0.000000000000000
7.890115337156204 10.619011082303858 -0.427882803196009 0.000000000000000
19.128942219773887 25.843368580516866 -1.152792950277501 21.000000000000000
19.056185880804652 25.667487099006017 -1.238831332161854 17.000000000000000
7.906965967956471 10.683606105986113 -0.545762820012361 0.000000000000000
7.808564246311211 10.551255349181973 -0.605894708853812 8.000000000000000
7.774388789342011 10.473695289943601 -0.637350758586740 26.000000000000000
7.756858780039875 10.488995067056985 -0.673813085639600 22.000000000000000
7.714873181742429 10.367349055302766 -0.883715407879041 27.000000000000000
7.726489340087935 10.385574380871935 -1.106968138029972 29.000000000000000
7.740397259964513 10.406711772392976 -1.333645196778662 29.000000000000000
8.265192686193602 11.158590464834413 -1.666260888347471 4.000000000000000
7.432373423278527 10.018123655203313 -1.686912507529269 5.000000000000000
6.795649179082901 9.142192921344813 -1.683287617224942 6.000000000000000
5.774213929867225 7.793441854257713 -1.671710713639485 9.000000000000000
13.619890013778187 18.225459947509869 3.953733281807585 22.000000000000000
12.467714504555881 16.634728248385514 1.843471748617393 17.000000000000000
14.061615740436238 18.828849724199742 1.339434184409837 16.000000000000000
13.977780220275328 18.734603721228112 1.199515149006365 23.000000000000000
20.722540911257070 27.680406437140732 -0.378178257164136 0.000000000000000
20.684469756361135 27.741952068198273 -0.478185324100033 12.000000000000000
7.962987795373880 10.636608526049214 -0.205318466779640 13.000000000000000
20.793826499482083 27.842901435973076 -0.682678890553315 9.000000000000000
20.770182372149666 27.726705148834306 -0.783123779850262 5.000000000000000
20.707198984096717 27.755242455452155 -0.882061389727641 4.000000000000000
20.736928909486355 27.708320479920268 -0.983620376698983 12.000000000000000
7.885441434958000 10.574768998308299 -0.386538610571343 0.000000000000000
7.853877616895541 10.500859845761704 -0.419813830611490 0.000000000000000
19.156671624900010 25.697443061417481 -1.148541708744843 22.000000000000000
19.097731265070429 25.540972269288808 -1.235604240853809 18.000000000000000
7.905603935966599 10.609269937113192 -0.541266103568173 0.000000000000000
7.816464331021934 10.489882347202579 -0.602444673098504 9.000000000000000
7.784445839290620 10.415636145354023 -0.634128858265002 25.000000000000000
7.759700559223650 10.421535585350950 -0.669356876642172 25.000000000000000
7.724570252379112 10.309593179141418 -0.879680629930403 27.000000000000000
7.726490970169608 10.315362380042563 -1.100194537155252 29.000000000000000
7.742994113202484 10.339662203970706 -1.326484686241177 28.000000000000000
8.302170679053875 11.130166973996724 -1.666686779498020 4.000000000000000
7.470235456068616 9.998804584122338 -1.688730086665002 5.000000000000000
6.811006558053742 9.100444594315475 -1.678932385047645 6.000000000000000
5.806735170957320 7.782863394790320 -1.674755094979716 9.000000000000000
10.892160419822904 14.468929277965563 3.236899418771013 15.000000000000000
12.653025204594899 16.863910343796029 2.595248974006632 17.000000000000000
13.595280412822111 18.093587014152270 1.307548764131835 22.000000000000000
14.053519138209991 18.702029863169216 1.199394572474766 11.000000000000000
20.744150310265162 27.513245470558878 -0.376124331464055 1.000000000000000
20.730777827953222 27.606554179704865 -0.476938077987045 11.000000000000000
7.963546683752926 10.565367322102714 -0.202618645182745 9.000000000000000
20.818486896008398 27.678615358151596 -0.679719197874927 14.000000000000000
20.838141891794205 27.619678515488275 -0.782531853599886 4.000000000000000
20.797194907958517 27.676950130551432 -0.882803644900915 6.000000000000000
20.763528170504465 27.547500403954963 -0.979798416538445 4.000000000000000
7.903144294426940 10.525728056241936 -0.384982594981622 0.000000000000000
7.910867079306418 10.502047943162543 -0.422850146591136 0.000000000000000
19.203035832147844 25.577008741364139 -1.145965905613453 20.000000000000000
19.136193429660775 25.411308926710660 -1.232155529015910 18.000000000000000
18.718244494680128 24.966275306702123 -1.287665875074006 9.000000000000000
7.821563557798094 10.425456050738797 -0.598643312718129 10.000000000000000
7.791720730509039 10.354499839784159 -0.630543874191168 25.000000000000000
7.771667164189110 10.296291874366544 -0.661561616174369 27.000000000000000
7.731489259173761 10.248774551559043 -0.875201811861819 27.000000000000000
7.731017616121608 10.251490962133433 -1.094444089059062 31.000000000000000
7.740305289947062 10.266508708860824 -1.318159546993803 29.000000000000000
8.339048955191812 11.101615848052008 -1.667114680990526 4.000000000000000
7.500728597028541 9.970075376709692 -1.688397671062797 5.000000000000000
6.845694614576370 9.083236246976520 -1.680852296333295 6.000000000000000
5.814904963572254 7.741765371954434 -1.668644265090034 9.000000000000000
2.848357899789744 3.784901582614685 -0.911672170077135 8.000000000000000
10.931176766414453 14.418869554913849 3.233900577102473 18.000000000000000
12.621946730907529 16.717655218991062 1.853277449025137 17.000000000000000
13.676187128807220 18.071763871763650 1.307995556929643 8.000000000000000
13.719588755957300 18.141851594341027 1.179250217006636 28.000000000000000
20.784403222144348 27.371575487546764 -0.374901710152175 0.000000000000000
8.005250582043548 10.580270532676368 -0.166031522644913 3.000000000000000
7.951268935301553 10.478618826230777 -0.198805712490083 1.000000000000000
20.834930769769937 27.504997971944128 -0.676340016598613 8.000000000000000
20.864032753853643 27.458749038214883 -0.779370939912722 11.000000000000000
20.806412882914888 27.493879087942894 -0.878175297437439 13.000000000000000
20.862544560650147 27.481695018543796 -0.981218850940705 5.000000000000000
7.930515899675036 10.489190441854374 -0.384548619205303 0.000000000000000
7.925739279265422 10.449887035458351 -0.420917926934774 0.000000000000000
19.234157047380997 25.437575332276424 -1.142132322870326 22.000000000000000
19.171539169343827 25.278511500364779 -1.228485145106615 18.000000000000000
7.936234494998385 10.504789064098128 -0.536847696871476 0.000000000000000
7.813928496669436 10.345504111080148 -0.593088409990918 11.000000000000000
7.788744626740930 10.280963209442801 -0.625508012205922 26.000000000000000
7.775892963284215 10.232223890347518 -0.657475560132073 28.000000000000000
7.725684214189196 10.172474645714940 -0.868504707708392 28.000000000000000
7.742609004816541 10.197007343535565 -1.090230130965321 30.000000000000000
7.744597452157952 10.202770614530058 -1.311577821100448 29.000000000000000
8.368477191570166 11.063643733519106 -1.665628962229673 4.000000000000000
7.531108990120247 9.941239068287954 -1.688066929541767 5.000000000000000
6.882795209228972 9.068959179502054 -1.683558771745151 6.000000000000000
5.832636037706014 7.712820681768624 -1.666196486580006 10.000000000000000
2.832223391150913 3.743894041592567 -0.898064797444081 3.000000000000000
10.979775117672677 14.381116304943005 3.233336793263782 10.000000000000000
12.931929665277396 16.997701470114805 1.879518248848578 15.000000000000000
14.839337518993123 19.431007896260354 1.371365183753943 18.000000000000000
14.182471409685933 18.598612190673450 0.926639753984994 0.000000000000000
20.838655249113206 27.248888366865643 -0.374304686480569 0.000000000000000
8.015323591468078 10.521548984722246 -0.164340791213434 12.000000000000000
7.965955434242541 10.426360491244244 -0.197436424075291 0.000000000000000
20.904363537436225 27.401050430387954 -0.676021932769431 3.000000000000000
20.884139356482365 27.291675680775214 -0.775904934217345 10.000000000000000
20.836654694478874 27.339499135590430 -0.875010355563876 8.000000000000000
7.855620050061996 10.324764835416593 -0.372611382175993 0.000000000000000
7.885465750960502 10.329251191255077 -0.412547388274139 0.000000000000000
7.913431429865072 10.401337339515853 -0.454650246348154 0.000000000000000
19.264536628101574 25.298228894145616 -1.138297762867211 24.000000000000000
7.879097776183417 10.362157857919714 -0.525145678193923 0.000000000000000
7.863878397004076 10.310118383565937 -0.559909158705529 0.000000000000000
7.823233630118223 10.287521421974494 -0.589985367611873 12.000000000000000
7.792818635551499 10.216894897929523 -0.621558106778834 26.000000000000000
7.779763384101510 10.168254213488408 -0.653388224267878 27.000000000000000
7.734372912177437 10.114941510021497 -0.864467008058790 28.000000000000000
7.739012355704712 10.124008062636188 -1.082939720300684 31.000000000000000
7.748537250687984 10.139131311379776 -1.304994793659346 30.000000000000000
7.949957379327770 10.393011620382373 -1.539374779130412 0.000000000000000
7.568762652641861 9.921525119748827 -1.689890779225340 5.000000000000000
6.905091889950133 9.036215338338989 -1.681559892786180 6.000000000000000
5.857599586869427 7.692904630015507 -1.666497262058449 10.000000000000000
2.825854413034397 3.714468303464253 -0.889457268678548 1.000000000000000
10.902710251479141 14.185417451148487 3.201710447307035 16.000000000000000
12.994382004671603 16.959221541279277 1.879373080774110 17.000000000000000
12.955163568544418 16.915016198025221 1.505399812850640 10.000000000000000
14.262817107173262 18.571474974493874 0.926415237907884 17.000000000000000
14.287668052995713 18.617813686872303 0.791793159330545 0.000000000000000
14.316944309332559 18.596896945575871 0.723433713811292 1.000000000000000
14.276665805372907 18.560343675358517 0.586788116495036 0.000000000000000
20.877498707617743 27.107267212373458 -0.373082036427364 0.000000000000000
8.027587068831771 10.465992781407076 -0.162859894918605 20.000000000000000
7.980372202352474 10.374105909881633 -0.196067212057589 0.000000000000000
20.933909758642965 27.246557789225648 -0.673476527631399 9.000000000000000
20.915670750850833 27.140515764728164 -0.773194161846701 4.000000000000000
20.870992325027647 27.191535934853007 -0.872170264339874 3.000000000000000
7.947255798301005 10.369275699865037 -0.379473285040182 0.000000000000000
20.911205410405703 27.267927001273826 -1.074886774820544 9.000000000000000
7.905359687586409 10.321289963772569 -0.449887038321794 0.000000000000000
19.299100276470089 25.165258917929613 -1.134882452385553 24.000000000000000
8.000339309046764 10.406039216816476 -0.498317168898410 0.000000000000000
7.833384695618299 10.162432622065564 -0.582724470322921 13.000000000000000
7.799040121857773 10.156002460746842 -0.617969906125538 25.000000000000000
7.783278814430447 10.104373855330104 -0.649299664606908 25.000000000000000
7.740252563473994 10.054374135337545 -0.859984844787525 28.000000000000000
7.739987194172827 10.057323037545528 -1.076672862678198 30.000000000000000
7.757099495404348 10.081737127661791 -1.299574561184935 29.000000000000000
8.036379717127270 10.430191678715703 -1.553202261120121 9.000000000000000
7.594003786573771 9.886354555904107 -1.688127717422091 5.000000000000000
6.937140909075006 9.015594657390556 -1.682700909474201 6.000000000000000
5.880026385750517 7.669889626085796 -1.665883301442793 11.000000000000000
2.820170071215022 3.664386298404667 -0.875990865354989 0.000000000000000
10.952962377578066 14.150840446527218 3.201756581495300 18.000000000000000
12.979763076236793 16.823617068544955 1.871138449485653 14.000000000000000
14.309442884362827 18.495507138700049 1.331768328776723 9.000000000000000
14.318264059892558 18.512681458108418 0.925462122800748 27.000000000000000
14.325902189810421 18.537000217639537 0.790567953918956 28.000000000000000
14.332649726004190 18.487845291438958 0.721993217233741 33.000000000000000
14.325882578790765 18.550934074079350 0.655252121819833 7.000000000000000
14.332124912341548 18.501506431160635 0.586011554818159 37.000000000000000
14.357445087416000 18.568075934917822 0.519568779776659 3.000000000000000
14.390799919059203 18.553025808882708 0.450751546705953 12.000000000000000
14.363571379757582 18.590357212346866 0.383381032164993 12.000000000000000
14.392029816706795 18.568580375467164 0.314075086092940 20.000000000000000
14.376916450543922 18.621417452429171 0.246732525280200 0.000000000000000
14.382493447091216 18.570978170824930 0.177799570873008 31.000000000000000
14.379682236726179 18.602370829484251 0.111357870135809 0.000000000000000
14.407327451230968 18.579972261961622 0.041562896464963 3.000000000000000
14.391729365239211 18.632040314866501 -0.026645093575392 1.000000000000000
14.412032971094391 18.599686310503067 -0.095457333319673 13.000000000000000
20.923041036363067 26.975108366412947 -0.372172971529355 0.000000000000000
8.032011937664741 10.401163056250640 -0.160746743708533 14.000000000000000
7.969325148679608 10.290897829019153 -0.192470808176398 0.000000000000000
20.947787155448903 27.073364137922901 -0.670092143113310 14.000000000000000
20.993487689761100 27.049041092819024 -0.773363804050463 5.000000000000000
20.944096222687524 27.093910187870918 -0.871941343131408 7.000000000000000
20.925596837216773 26.987261746247086 -0.969046969001349 2.000000000000000
20.922880789770794 27.091618900276600 -1.069807058836648 14.000000000000000
7.895384586108359 10.171003476566208 -0.441266447421661 0.000000000000000
19.308250315165758 25.000983778757551 -1.129365152191223 22.000000000000000
7.853311358373943 10.122889613427931 -0.509657239078076 0.000000000000000
8.022755786886080 10.400903124171267 -0.535788081993297 0.000000000000000
7.836687285398347 10.098463013446795 -0.578916999401633 13.000000000000000
7.797392411660300 10.085923800471255 -0.613291888742125 27.000000000000000
7.786443014861605 10.040589453437603 -0.645209785031142 25.000000000000000
7.740780480108566 9.987718903228254 -0.854613889619279 28.000000000000000
7.743092881476355 9.993822612166783 -1.070917424466443 30.000000000000000
7.752862410165052 10.009053049034877 -1.291242964458629 34.000000000000000
7.961157565491306 10.267810373686531 -1.525498966958110 2.000000000000000
7.621572288479267 9.854176009596985 -1.687083747956746 5.000000000000000
6.956699934376342 8.979678478038773 -1.679919406398708 6.000000000000000
5.897407986547679 7.640794394610781 -1.663438005536128 12.000000000000000
2.818382303706342 3.640849963787931 -0.869881890080916 0.000000000000000
10.799499500275894 13.863825161830137 3.151881731413530 24.000000000000000
13.049131295545832 16.794281424133700 1.871771673722723 17.000000000000000
14.347128239730313 18.414737802213793 1.329599973178427 36.000000000000000
14.321000464216178 18.388148789025585 0.922990168849497 32.000000000000000
14.358748165825231 18.449879469400067 0.789244256143503 30.000000000000000
14.377787381515013 18.416359614745062 0.720995623825968 32.000000000000000
14.353828391148481 18.457550703966064 0.654160734097103 31.000000000000000
14.387342447554145 18.442499165280900 0.585232205556574 46.000000000000000
14.377845336066450 18.465249508319495 0.518801069881833 23.000000000000000
14.421092270350830 18.462622541258455 0.450143561945708 48.000000000000000
14.386599995528320 18.490597786725701 0.382992280340140 40.000000000000000
14.429926742357598 18.487520056271812 0.313672617064571 45.000000000000000
14.405095037042178 18.527852853302306 0.246629628506062 26.000000000000000
14.410443878168866 18.477444707946063 0.177864376880152 53.000000000000000
14.437660871867720 18.546322314967810 0.110753832346374 23.000000000000000
14.437705186241686 18.489515806098410 0.041875129782222 37.000000000000000
14.414901273148031 18.532192773605452 -0.025901820557835 30.000000000000000
14.452528418917872 18.521681366985419 -0.095257875318078 54.000000000000000
14.419396392955631 18.551880703879235 -0.162419275037767 26.000000000000000
8.010880591985705 10.277055499891746 -0.120276843914056 18.000000000000000
8.036079714770791 10.336415071872361 -0.158632448782550 9.000000000000000
7.983093871062514 10.238788990405146 -0.191099734625801 0.000000000000000
20.975616931547737 26.919181920688324 -0.667542640937997 6.000000000000000
14.463095308742393 18.540976905331298 -0.504360793749704 56.000000000000000
14.439177721853277 18.582828840538376 -0.571664600827624 23.000000000000000
7.916832169637959 10.161153793980484 -0.405568847571523 0.000000000000000
7.906200705008630 10.116129487157616 -0.438932819300405 0.000000000000000
7.887381981470672 10.128650381962737 -0.476356529004899 0.000000000000000
7.886759686207705 10.095906802381245 -0.510062706181192 0.000000000000000
7.855035551284483 10.092856561650228 -0.546176657417700 0.000000000000000
7.842164346966098 10.037673594961428 -0.575459221964832 14.000000000000000
7.807962180655040 10.031390166431050 -0.610427170152779 27.000000000000000
7.784200638056796 9.970740884970896 -0.640369842518800 25.000000000000000
7.751020557256797 9.933469994918434 -0.851017431294896 29.000000000000000
7.735785860254155 9.918147778167144 -1.063108544523909 31.000000000000000
7.763264746384471 9.954879549000038 -1.286402859433502 33.000000000000000
7.952479587089882 10.188534130352147 -1.515043950097468 3.000000000000000
7.658980981452484 9.834094492288591 -1.688913305327989 5.000000000000000
6.996055919545938 8.967937288408956 -1.683418541280266 6.000000000000000
5.924603347593100 7.623639316690179 -1.664658865651272 11.000000000000000
2.819005788228254 3.620175732337755 -0.865023249891541 0.000000000000000
10.836177667506588 13.814263691979439 3.148889416623759 21.000000000000000
13.128464954115159 16.777099376715476 1.873443070137065 14.000000000000000
14.454671444229326 18.421063016576952 1.331430055729761 17.000000000000000
14.395816727010914 18.354118434384596 0.922611063221638 28.000000000000000
14.406204328458315 18.381451959366906 0.788211528167779 26.000000000000000
14.462797920931793 18.394574365707307 0.720583146074863 24.000000000000000
14.413875226670017 18.404720988047075 0.653394623971835 33.000000000000000
14.474959870181875 18.423798884427882 0.584618740863033 23.000000000000000
14.445379692957715 18.421681773170945 0.518061563598674 34.000000000000000
14.491150719916847 18.421992123082248 0.449366839761096 36.000000000000000
14.446719102028554 18.437656513712547 0.382271572591270 34.000000000000000
14.500086777466489 18.446881019476322 0.312824917075276 24.000000000000000
14.437804313721582 18.440548350663541 0.246435334131710 55.000000000000000
14.510704328676086 18.474237497789240 0.176252995678046 14.000000000000000
14.470333400658969 18.458939371081662 0.110839840399606 55.000000000000000
14.522910209549018 18.467495085847169 0.040396863968570 38.000000000000000
14.465116072069083 18.466684555964306 -0.026180954726538 52.000000000000000
14.525292164847507 18.484073270321908 -0.096424153833063 38.000000000000000
8.039648397575643 10.275936655036199 -0.082904213653913 0.000000000000000
8.022055944797795 10.221759470352987 -0.118894592247359 21.000000000000000
8.049938009994660 10.284109584261268 -0.157360376342274 6.000000000000000
7.986429586375556 10.174377578269587 -0.188836666448566 0.000000000000000
8.026142541172739 10.258971090628970 -0.230533560891928 0.000000000000000
14.538405282083678 18.506438102216961 -0.505985612065764 31.000000000000000
14.482085927979471 18.507897342002380 -0.570914009738823 51.000000000000000
7.905331592948763 10.111271853143650 -0.364685791015686 0.000000000000000
7.894552513084975 10.066229762502084 -0.399528051111585 0.000000000000000
7.904021275337441 10.045928408725205 -0.435074992345476 0.000000000000000
7.898028174743328 10.073834317928887 -0.473914218823481 0.000000000000000
7.887115179159717 10.028847009889878 -0.506206281900482 0.000000000000000
7.870672180066307 10.044320092259474 -0.544202020910656 0.000000000000000
7.852391736446003 9.983102651789002 -0.572702918762002 13.000000000000000
7.818243736243450 9.976899252807849 -0.607561953511712 27.000000000000000
7.796786300310887 9.919443613522629 -0.637775337331130 25.000000000000000
7.758441130487905 9.876199347812792 -0.846976319706426 27.000000000000000
7.740674402121972 9.857932651952298 -1.057863159510424 31.000000000000000
7.763303468218900 9.888542713610144 -1.279232678322703 33.000000000000000
7.950884023173182 10.118573689590876 -1.506504346561639 3.000000000000000
7.696338420266339 9.813864461139657 -1.690745216684908 5.000000000000000
7.017868536711132 8.934893380394408 -1.681424575057138 6.000000000000000
5.961735759892989 7.618339201772459 -1.669547186548539 9.000000000000000
2.814409117548538 3.593917083601783 -0.857661786384023 0.000000000000000
10.905196807346602 13.804377683281794 3.153806096191856 18.000000000000000
13.182683456191013 16.728569063107926 1.872504460809430 13.000000000000000
14.552352351173742 18.414443751974076 1.332681356550261 18.000000000000000
14.457964787877707 18.304258959302679 0.921867440760489 24.000000000000000
14.521362188302087 18.396803178496384 0.788483879604308 16.000000000000000
14.568014072498137 18.397239146355133 0.720457053238883 0.000000000000000
14.524065624163320 18.413864247729023 0.653122463062996 8.000000000000000
14.548065624754551 18.421344529428900 0.517336127923823 12.000000000000000
14.538019176221971 18.437176664799871 0.245000735184413 14.000000000000000
14.568073415555007 18.452303141781087 0.109120498570249 24.000000000000000
14.633368964963779 18.476133844635903 0.038098193885548 3.000000000000000
14.580496910412108 18.481838320224433 -0.028884518639931 5.000000000000000
8.045654217674207 10.214420682185226 -0.081256508104750 0.000000000000000
8.027841616226976 10.160351545408142 -0.117112447646259 23.000000000000000
8.055884748021272 10.222598205256654 -0.155454995110933 4.000000000000000
14.592554416401660 18.432087993917300 -0.369279691726680 3.000000000000000
14.571757383238829 18.477160811578280 -0.437388666715735 3.000000000000000
14.648919731127538 18.515019349189053 -0.510074963926013 19.000000000000000
14.559823135648507 18.476379131081238 -0.572784918476224 30.000000000000000
7.925958852765679 10.001661232694678 -0.360439417274290 0.000000000000000
7.920120386239382 10.029896034298242 -0.399055947321071 0.000000000000000
7.896342393872131 9.969719364436889 -0.430605744271870 0.000000000000000
7.895658897520820 10.003723773865756 -0.469887445565064 0.000000000000000
7.879449228943408 9.952705834481163 -0.501363916749792 0.000000000000000
7.863185261389396 9.968165427505555 -0.539166041487128 1.000000000000000
7.844475060426844 9.907150224601162 -0.567486446079490 14.000000000000000
7.807886278375951 9.897930817586234 -0.601789922745825 25.000000000000000
7.804011084342199 9.862040941576359 -0.634431333697238 24.000000000000000
7.752843013325902 9.803704213736959 -0.840713144104219 29.000000000000000
7.747772050616955 9.800838062537027 -1.053130121839094 31.000000000000000
7.762971237850254 9.822308623377042 -1.272061055053934 35.000000000000000
7.941324747674153 10.039623554495614 -1.496044759282084 3.000000000000000
7.716042129146220 9.772291486669529 -1.687551169925614 5.000000000000000
7.044566007993004 8.907827220487411 -1.681001815371366 6.000000000000000
5.993885381349073 7.606910352626846 -1.672604925314387 8.000000000000000
2.812483446101287 3.549997575539004 -0.846690177049588 0.000000000000000
11.004457152782830 13.830774469817515 3.166018322614796 21.000000000000000
11.055900880550785 13.906982763224230 2.256048829388828 3.000000000000000
14.662811244597922 18.422820683591070 1.334638114549228 10.000000000000000
14.475059317654205 18.207431374840766 1.189692928995977 8.000000000000000
8.076885478557502 10.183695992537904 -0.081484402390389 1.000000000000000
21.027907950026187 26.359712564936487 -0.365594501315869 6.000000000000000
8.058938506981898 10.158095888220059 -0.153337497383324 3.000000000000000
14.703037216098478 18.440296914742042 -0.372927669136713 0.000000000000000
7.960593463152203 10.011537477436237 -0.255163056727499 0.000000000000000
7.954854029604244 9.973197246497728 -0.289009244421228 0.000000000000000
14.675366309328787 18.490982791111271 -0.577470478509866 26.000000000000000
7.935840175224592 9.946924379525926 -0.358315378808446 0.000000000000000
7.932733268664463 9.978197470759548 -0.397117719992905 0.000000000000000
7.926664716252669 9.939530360283259 -0.430708828652754 0.000000000000000
7.905673446939089 9.949048543895580 -0.467443279167528 1.000000000000000
7.902062417181223 9.913409532379694 -0.500458093038084 0.000000000000000
7.885892557675851 9.928907390447753 -0.538211129172567 0.000000000000000
7.856613798513290 9.855783594167180 -0.565079647267105 14.000000000000000
7.817508195327325 9.843600981260868 -0.598922509395704 28.000000000000000
7.803252608809154 9.795557973933922 -0.629961934292895 26.000000000000000
7.759596395943482 9.746605498905359 -0.836669737299815 29.000000000000000
7.741826305931572 9.728612833753969 -1.045828970637976 33.000000000000000
7.767351603087767 9.762270773370881 -1.266052987182950 35.000000000000000
7.933843232537037 9.963893736971938 -1.486222003366875 4.000000000000000
7.753223475020689 9.751828034185626 -1.689386756509135 5.000000000000000
7.071157034085152 8.880676693033687 -1.680580400123752 6.000000000000000
6.010916149973688 7.577522870706494 -1.670164310947051 9.000000000000000
2.815212786320456 3.532283936242186 -0.843080756748110 0.000000000000000
11.435625665955005 14.241622360471100 4.213070077509285 3.000000000000000
10.881761732655521 13.588991606147063 3.124697457692828 26.000000000000000
11.122979988405083 13.893303629912699 2.258680155771435 18.000000000000000
14.786210722166347 18.446084160027326 1.337298741684837 12.000000000000000
14.496094868692373 18.107889888159768 1.187043362136687 34.000000000000000
8.244591167476669 10.279240637358273 -0.053597638227328 0.000000000000000
8.118262523341453 10.165119534315226 -0.082465208623620 2.000000000000000
21.130576852225840 26.302139110565314 -0.367207690224471 5.000000000000000
8.064207434588758 10.096749305960325 -0.151429938724202 3.000000000000000
8.001416777512194 9.958788412715984 -0.217634184167375 0.000000000000000
21.066084992489856 26.288307467442344 -0.656627637587349 12.000000000000000
7.977489895248913 9.933658542906526 -0.288387069224924 0.000000000000000
21.048024645134788 26.290220259409942 -0.854288567805513 11.000000000000000
7.963467930003453 9.913561421823664 -0.358162288304871 0.000000000000000
7.947649192604932 9.929568417558999 -0.395472934484336 0.000000000000000
7.933711307825456 9.881823514993654 -0.428067324327375 0.000000000000000
7.915400418213708 9.894420058240366 -0.464998533986915 0.000000000000000
7.901361121469098 9.846643748184681 -0.496597604764950 0.000000000000000
7.877659002972780 9.852974049131886 -0.533172087387667 0.000000000000000
7.863343510976070 9.798361225338498 -0.561969220532510 14.000000000000000
7.824278326351814 9.786259734502439 -0.595691164744491 26.000000000000000
7.807260436840497 9.735278319523607 -0.626240728276904 26.000000000000000
7.766043139731887 9.689573094343670 -0.832625429103103 29.000000000000000
7.748258255540965 9.671702483625173 -1.041093466616254 34.000000000000000
7.763751205705721 9.693239247826201 -1.258295472270156 36.000000000000000
7.908112957754237 9.867200844927625 -1.471919011498207 5.000000000000000
7.782745801646406 9.722191144549731 -1.689068825193325 5.000000000000000
7.102715904310769 8.859424017828934 -1.681731349540601 6.000000000000000
6.037924884877504 7.559947444759532 -1.671391812876303 8.000000000000000
2.812665897917447 3.509032989800195 -0.836967750868949 0.000000000000000
11.453473154612443 14.166060506833054 4.202730852810541 7.000000000000000
10.884330616012056 13.499851171727668 3.113796945627035 27.000000000000000
11.154370085221563 13.836550520488933 2.255703724924625 15.000000000000000
13.327619931016148 16.561124539471628 1.251717941822411 10.000000000000000
14.531913751091240 18.026891087831729 1.185106741195353 20.000000000000000
8.252748939177472 10.220406397639350 -0.052259030162356 0.000000000000000
8.115793070460589 10.094465651418373 -0.080253687444220 4.000000000000000
8.066564017472709 10.032433716104810 -0.149309876807695 4.000000000000000
8.011734762244336 9.935963862808828 -0.181112193527078 0.000000000000000
8.018747529347042 9.913041916925598 -0.216637213758206 0.000000000000000
7.993054394060310 9.917111048106177 -0.252777096005957 0.000000000000000
7.987020173930767 9.878859615761941 -0.286473383871894 0.000000000000000
21.180876357755771 26.269608466875837 -0.858165307494889 15.000000000000000
7.970260550655381 9.855805715342113 -0.355756432141452 0.000000000000000
7.944258983638810 9.859662515507400 -0.391772101327295 0.000000000000000
7.912025726218375 9.790761584469271 -0.422067237507489 0.000000000000000
7.891337522158245 9.800284108021300 -0.458430131184745 0.000000000000000
7.900288900602434 9.779989462516154 -0.492735614299433 0.000000000000000
7.876711821363508 9.786352568154472 -0.529152060527014 0.000000000000000
7.862016891178333 9.731891887709240 -0.557802741844389 14.000000000000000
7.833317119855667 9.732034476770766 -0.592822469530482 27.000000000000000
7.816100407012816 9.681153721154155 -0.623268606974504 25.000000000000000
7.769610294372023 9.629579294680608 -0.828135587479930 30.000000000000000
7.759522522749044 9.620906015287906 -1.037384457274392 35.000000000000000
7.762324035543714 9.627362428211081 -1.251118938448008 34.000000000000000
7.848580680025939 9.731673538257018 -1.449293967095299 7.000000000000000
7.812152198269302 9.692459917279729 -1.688752442037275 5.000000000000000
7.134210100404494 8.838052351035151 -1.682884171256791 6.000000000000000
6.057266084884620 7.533412300515336 -1.669869879962480 8.000000000000000
2.815192544846926 3.491364036586900 -0.833357668161324 0.000000000000000
11.518899598287707 14.147444070064710 4.207823510560884 14.000000000000000
10.827823762160131 13.341316712418484 3.088914759501705 22.000000000000000
11.131684303988758 13.715801690008247 2.244323986608740 17.000000000000000
13.378405557884168 16.508865925523601 1.250744408132390 9.000000000000000
14.562218461573970 17.939706033921645 1.182931929052390 28.000000000000000
8.268377664192155 10.170754806815323 -0.051449360644652 0.000000000000000
8.166831089801606 10.020332074490758 -0.079965720153532 5.000000000000000
8.078022414125840 9.913191325374834 -0.145700827141928 7.000000000000000
8.010773821693054 9.868955474357127 -0.178619639113604 0.000000000000000
8.022863149214860 9.852129112446134 -0.214464192006594 0.000000000000000
21.217176795506333 26.107781212869583 -0.657266074685756 17.000000000000000
21.218262347261266 26.211977102031632 -0.760431701328239 16.000000000000000
21.196644582043326 26.106727585696284 -0.854499946347572 8.000000000000000
7.976745949929630 9.798129801564519 -0.353349516047681 0.000000000000000
7.958610150327799 9.811129827376716 -0.390126087386342 0.000000000000000
7.936499554058119 9.754488357282233 -0.421560289973105 0.000000000000000
7.915878964232713 9.764070856418803 -0.457886309626138 0.000000000000000
7.893661855263265 9.707406340255003 -0.488214529827199 0.000000000000000
7.888316576966443 9.735021916369147 -0.526833832616170 0.000000000000000
7.865507622465091 9.671607439058798 -0.554338207178240 14.000000000000000
7.829137381099676 9.662710753240459 -0.588134110969308 28.000000000000000
7.811704006444359 9.611953347857783 -0.618419727084587 25.000000000000000
7.767682418331838 9.563633618056018 -0.822754962592217 30.000000000000000
7.760207549212519 9.558084282247458 -1.031619784902239 35.000000000000000
7.770818215245783 9.573636458720207 -1.246272907951217 35.000000000000000
7.842087293476047 9.659698044432025 -1.440100380071651 10.000000000000000
7.856781846123835 9.680581266414498 -1.692750712030570 5.000000000000000
7.157963775236137 8.807643486418312 -1.681681522821857 6.000000000000000
6.105840636332386 7.491915532373406 -1.670497699714330 8.000000000000000
2.815016142698721 3.470963217576626 -0.828495332413486 0.000000000000000
11.667998152175164 14.227056606392845 4.239710461470931 16.000000000000000
10.921236214740956 13.361213170049064 3.099903877625940 20.000000000000000
11.136591997431973 13.628773882560269 2.237348627435250 19.000000000000000
13.308027115896278 16.312679581101129 1.243092410581631 15.000000000000000
13.399674527689356 16.382673027208099 1.063857082973698 7.000000000000000
8.312412458491597 10.154436021399482 -0.052584273295779 0.000000000000000
8.184279093975647 9.974098915326197 -0.079258096754086 6.000000000000000
8.079353438668534 9.849154243742239 -0.143576987978234 10.000000000000000
8.035487835369933 9.832342577010513 -0.178362794764299 0.000000000000000
8.024040893300038 9.788279065068386 -0.212054653379653 0.000000000000000
21.224296549367853 25.935851297713683 -0.653865641185628 4.000000000000000
21.251508604844183 26.070631896555199 -0.758172557626460 6.000000000000000
21.214093791557801 25.947113898448791 -0.850996506290960 12.000000000000000
7.975098226908258 9.731461286446075 -0.350095586539693 0.000000000000000
7.936300167652784 9.720270606434473 -0.384364550011131 0.000000000000000
7.960814545498361 9.718158250959773 -0.421054247003703 0.000000000000000
7.883099604055077 9.661247606059783 -0.450360022425978 0.000000000000000
7.956876510884169 9.716528687747937 -0.492568175123830 0.000000000000000
7.917821239293903 9.704894648593926 -0.526901008468898 0.000000000000000
7.873878474891746 9.617441631486846 -0.551576664554048 13.000000000000000
7.842746614791545 9.614672409050074 -0.585991378593628 28.000000000000000
7.817321542484506 9.554961446451573 -0.615070255046616 24.000000000000000
7.773171347106442 9.506843535914305 -0.818707436879058 29.000000000000000
7.763137612845667 9.498375882736619 -1.026367581769736 34.000000000000000
7.771283054596124 9.510968446050038 -1.239676670052092 36.000000000000000
7.827455306878776 9.578902078231708 -1.428984295931369 14.000000000000000
7.880885303989246 9.644645776114205 -1.691000125147768 5.000000000000000
7.186727123102965 8.783082473271660 -1.682051997621082 6.000000000000000
6.135155287988185 7.476899083182763 -1.672648365601486 8.000000000000000
2.809071216147580 3.424792273544861 -0.816264652178350 0.000000000000000
11.708324887185620 14.177802597757195 4.236670920690934 8.000000000000000
11.020053986978338 13.386626594104547 3.112100932516891 20.000000000000000
11.427958801240948 13.887401418761714 1.652529704835970 1.000000000000000
13.344979248101094 16.245277466919227 1.241410446664891 11.000000000000000
13.524852658242311 16.418609182679781 1.066041598599198 9.000000000000000
8.330274626352496 10.107723417526012 -0.051953001966153 0.000000000000000
8.209360558681778 9.936912848102759 -0.079116139623948 6.000000000000000
8.088199539188171 9.794262710803553 -0.142087567859490 14.000000000000000
8.020811658026609 9.750394787153970 -0.174748810177116 0.000000000000000
8.022248894634116 9.721503250560447 -0.209408272662929 0.000000000000000
21.310188533053761 25.859062124058092 -0.654823218474122 6.000000000000000
21.255810141504483 25.895645682624398 -0.754232780830367 13.000000000000000
21.225545916166599 25.781577500020731 -0.847161358261781 4.000000000000000
8.014976641304626 9.713087813974715 -0.351354828546908 0.000000000000000
7.994415351692585 9.723154454124371 -0.387716118876337 0.000000000000000
7.977123373535329 9.672721266802638 -0.419632452044804 0.000000000000000
7.938395385650570 9.661303976907094 -0.453625983461490 0.000000000000000
7.931422218261427 9.622943974131976 -0.485743823064344 0.000000000000000
7.915941195980836 9.638486009462985 -0.522878201245067 0.000000000000000
7.876735429598754 9.557314568879912 -0.548110003409432 13.000000000000000
7.843075765362275 9.551592388832693 -0.582028131858057 29.000000000000000
7.827855953198218 9.504037140993971 -0.612471031485564 25.000000000000000
7.783570327965600 9.456115343354858 -0.815549236690361 29.000000000000000
7.770942762694710 9.444733023502453 -1.022142570607104 33.000000000000000
7.771403192022290 9.448390498950539 -1.233079153500889 36.000000000000000
7.822703193313635 9.510238889916808 -1.420426241711206 17.000000000000000
7.917717984635025 9.623503055508019 -1.692846310526406 5.000000000000000
7.215401893282857 8.758435737816191 -1.682423793025591 6.000000000000000
6.151539806120770 7.447180665791437 -1.670213220465939 8.000000000000000
2.813825517447556 3.409986414742695 -0.813905213103144 0.000000000000000
11.717773786760217 14.092824163704924 4.223887816964645 16.000000000000000
11.046977356337509 13.327590929188558 3.107277325059839 23.000000000000000
11.490203101068184 13.866088938697223 1.653494683013150 8.000000000000000
13.446493144175538 16.253821599014096 1.243271630575917 15.000000000000000
13.538723960880709 16.323168381297776 1.063638381269084 17.000000000000000
8.353162283014241 10.067028258066605 -0.051675980775574 0.000000000000000
8.229017601717699 9.893647960991322 -0.078598065505630 6.000000000000000
8.096758807384917 9.739424075673325 -0.140597479665422 17.000000000000000
8.008285750344342 9.671674690644631 -0.171355703229860 0.000000000000000
8.022716374344302 9.657875841401891 -0.206995662478084 0.000000000000000
21.318336879547498 25.690435576839768 -0.651560506243197 14.000000000000000
21.274602458781935 25.739270165350312 -0.751206536812809 6.000000000000000
21.313490392933524 25.707849197797422 -0.848259950217236 5.000000000000000
8.083739208674677 9.727564269754017 -0.355722139277566 0.000000000000000
7.989709264956324 9.653595085960374 -0.384010650323482 0.000000000000000
8.006339043420130 9.642308716040565 -0.419739542224052 0.000000000000000
7.983307444294753 9.649061183201491 -0.455625260340563 0.000000000000000
7.973607546403103 9.607700941339393 -0.487470490849795 0.000000000000000
7.947702059258090 9.611288665143812 -0.523287824648449 0.000000000000000
7.876642447594983 9.494282236262778 -0.544289843566976 12.000000000000000
7.845323667536703 9.428746722098877 -0.574461533245725 28.000000000000000
7.832884608698605 9.447170615154148 -0.609119915643502 26.000000000000000
7.783240627783740 9.393466838399116 -0.810609623630261 31.000000000000000
