# This PCD file was generated using the MATLAB® pcwrite function
# from Computer Vision Toolbox®.
# .PCD v.7 - Point Cloud Data file format
VERSION .7
FIELDS x y z intensity
SIZE 8 8 8 8
TYPE F F F F
COUNT 1 1 1 1
WIDTH 639
HEIGHT 1
VIEWPOINT 0 0 0 1 0 0 0
POINTS 639
DATA ascii
5.133810109947272 -8.655080582664551 -0.643595524535003 13.000000000000000
5.143683816997057 -8.630067778781177 -0.674092638784985 13.000000000000000
5.118431030423626 -8.598860486461538 -0.732881881868919 11.000000000000000
5.109146639568925 -8.615791597712112 -0.764686162151894 10.000000000000000
5.064595550470012 -8.531628154605373 -0.940289245139792 12.000000000000000
5.035862826838736 -8.476222430275298 -1.117398312792830 13.000000000000000
3.754478937028407 -6.315071759277435 -0.988139151498094 1.000000000000000
3.464097263613719 -5.826026997227883 -1.034826741036875 0.000000000000000
3.260528874211248 -5.491464263688789 -1.202332133793361 6.000000000000000
3.234929512657441 -5.440895482517980 -1.311581690903398 1.000000000000000
5.517842539637769 -9.335016402965964 2.578484410531529 24.000000000000000
5.572332392155816 -9.423455935949116 1.983763513868437 25.000000000000000
5.460179214945451 -9.284990623331916 0.957465832707170 13.000000000000000
5.385784062753625 -9.152263362146142 0.620710603994261 13.000000000000000
5.339247034463401 -9.063962981119511 0.422870618277228 13.000000000000000
5.331608972171922 -9.040260016331700 0.357723301658135 11.000000000000000
5.321661459525462 -9.012874909171066 0.292986680014137 14.000000000000000
5.315149764423317 -9.036340120080112 0.259397921511181 14.000000000000000
5.323696159538853 -9.032269561181709 0.227244309352709 14.000000000000000
5.310521891911121 -8.963462085019733 0.196384654206537 14.000000000000000
5.298175153725718 -8.976135137841107 0.163738077760635 12.000000000000000
5.268327633732397 -8.956983752676244 0.131740108894224 13.000000000000000
5.258766618805098 -8.895136678896064 0.102048833569381 12.000000000000000
5.261746302865742 -8.935516684796580 0.067771958477309 13.000000000000000
5.256539775225793 -8.906349454083063 0.037142008292171 13.000000000000000
5.249775115780047 -8.928930330218542 0.003338929869318 12.000000000000000
5.259253988563930 -8.901901306987357 -0.027719773545510 13.000000000000000
5.250337167737059 -8.920882994063216 -0.061006459703730 12.000000000000000
5.246229245848924 -8.869048135384601 -0.090176699690103 16.000000000000000
5.237443154502757 -8.887863626236550 -0.123609736333531 14.000000000000000
5.231962052311760 -8.858253742526992 -0.153421980900680 13.000000000000000
5.224979610811844 -8.880269714741670 -0.187533804303206 12.000000000000000
5.222580717550123 -8.831849939452923 -0.216286646928312 10.000000000000000
5.209657854462709 -8.843274911074134 -0.248990201830116 12.000000000000000
5.191706186986621 -8.766623790331668 -0.274647759907082 14.000000000000000
5.211540375524466 -8.837396969092937 -0.312861695858199 15.000000000000000
5.177016172659493 -8.754829415447006 -0.337518881863777 15.000000000000000
5.181382746354304 -8.797427740636044 -0.373329210648193 14.000000000000000
5.170914875782476 -8.734555704332692 -0.399491992342002 12.000000000000000
5.175082678137032 -8.776952164351307 -0.435271622188035 13.000000000000000
5.164922511483337 -8.749108630724486 -0.496199420891927 13.000000000000000
5.153156606138872 -8.708263625883310 -0.523477799088459 12.000000000000000
5.159205981015554 -8.753636886928909 -0.560221564853923 12.000000000000000
5.142692449771307 -8.680015336099386 -0.583783109019830 11.000000000000000
5.150459659533476 -8.728750117668261 -0.621102310880149 12.000000000000000
5.134042034453280 -8.689570738900970 -0.679703441993987 13.000000000000000
5.116294714065170 -8.637904118714621 -0.704756100502128 13.000000000000000
5.103078935428151 -8.647816830132195 -0.737368958359965 11.000000000000000
5.066466802149335 -8.611645869637803 -0.950419446327332 11.000000000000000
5.026481369786539 -8.535158317288872 -1.125072859095429 15.000000000000000
3.720699122178977 -6.310566595474642 -0.984648018654938 1.000000000000000
3.435773149418799 -5.827473579708290 -1.032565459491097 0.000000000000000
3.312793781388998 -5.592497541391410 -1.103517497292886 0.000000000000000
3.247865485128708 -5.519793663052313 -1.207280236992294 2.000000000000000
3.206235455475098 -5.438224654084616 -1.307699149570865 0.000000000000000
5.532037699167079 -9.443802800737306 2.596658676291968 22.000000000000000
5.531385345608535 -9.432185623942853 1.981923737608367 23.000000000000000
5.461694383393713 -9.294575214868155 1.359778712151914 21.000000000000000
5.371843826258492 -9.162484036679215 0.587788218964983 13.000000000000000
5.343355553792996 -9.152614540678607 0.421930006495315 11.000000000000000
5.320562042359358 -9.100750519550118 0.356753364443661 12.000000000000000
5.319212852631069 -9.053357762180712 0.324721241820474 14.000000000000000
5.316487935933227 -9.083847540238638 0.291497802971960 13.000000000000000
5.301169914765447 -9.071653949391536 0.226324295405927 15.000000000000000
5.292119095609495 -9.009793415593844 0.195166024236359 13.000000000000000
5.310275466393029 -9.078627240767620 0.160410666248257 13.000000000000000
5.253986935965718 -8.965859378515484 0.099502288342630 11.000000000000000
5.275832767930392 -9.041403987435553 0.063429865043643 14.000000000000000
5.263071009892713 -8.998148891571443 0.033206979034436 13.000000000000000
5.256297367465523 -8.976120514395472 -0.031170367523601 13.000000000000000
5.224305444470881 -8.908121858172629 -0.091801178688552 11.000000000000000
5.228775463492299 -8.951479425815135 -0.126931482209234 12.000000000000000
5.227179081664779 -8.928849443432414 -0.157375840584740 15.000000000000000
5.216017142624069 -8.898870035655539 -0.220329114248630 13.000000000000000
5.193466463353665 -8.892743694714298 -0.251803226312692 14.000000000000000
5.196866050989079 -8.854513700067416 -0.280759470981074 13.000000000000000
5.199206185309538 -8.893856234633205 -0.316492962862104 13.000000000000000
5.170650832005329 -8.821661994877246 -0.342212670134274 14.000000000000000
5.176698963633704 -8.867805863166128 -0.378518224371172 14.000000000000000
5.170373786756227 -8.811826384702577 -0.405528362246230 16.000000000000000
5.178107837726707 -8.861271999989995 -0.442210931762903 17.000000000000000
5.158313916597911 -8.780713948388721 -0.465984614107766 14.000000000000000
5.171887113488194 -8.840331775008488 -0.504330326338370 13.000000000000000
5.152619289480372 -8.785425028304520 -0.530304020521126 13.000000000000000
5.158422285022624 -8.830847755996061 -0.567252775912758 12.000000000000000
5.149904310908155 -8.771060225265394 -0.592637917342964 13.000000000000000
5.145996184160896 -8.798883659546558 -0.627692781653231 14.000000000000000
5.131616648458943 -8.728572347121936 -0.650784063193843 13.000000000000000
5.141143447624237 -8.780547862068133 -0.689301081823401 14.000000000000000
5.114041470382571 -8.711331799902723 -0.712313546778617 13.000000000000000
5.098812865886234 -8.717730668677708 -0.744651949188084 12.000000000000000
5.106999418849380 -8.689137185684414 -0.772615826323369 12.000000000000000
5.028032781797767 -8.614989516666453 -1.136440933474090 11.000000000000000
3.696170828695443 -6.323291668659355 -0.984861583916940 1.000000000000000
3.405664189855795 -5.825334224232311 -1.029482150846860 0.000000000000000
3.292576523370510 -5.607258274239758 -1.104593815831384 0.000000000000000
3.220712127912910 -5.520530611025299 -1.204609191089369 2.000000000000000
3.184735031360205 -5.449158906448941 -1.307882780356651 0.000000000000000
5.447994269137007 -9.372860938724296 2.577850069752254 28.000000000000000
5.518831130647903 -9.493064630067432 1.987676892618798 17.000000000000000
5.455913034392402 -9.359957422232505 0.959662429921685 15.000000000000000
5.397220149379674 -9.255140796807298 0.621339537155113 13.000000000000000
5.331037926715628 -9.165780225491870 0.388827811617171 13.000000000000000
5.326250503083900 -9.192953676700631 0.355284988823601 12.000000000000000
5.321409814100589 -9.138446941378698 0.323139739445180 15.000000000000000
5.307079526908035 -9.147864763392631 0.290165210848518 15.000000000000000
5.311733005679430 -9.110841533745667 0.257638250423870 14.000000000000000
5.308787174103993 -9.167318725465085 0.223766082902092 15.000000000000000
5.303924164902440 -9.112365754697480 0.192119467901453 14.000000000000000
5.297033740570584 -9.135576954629325 0.158718447774706 16.000000000000000
5.289904671094490 -9.076999285066243 0.127436492964581 15.000000000000000
5.269685247790347 -9.075344251533949 0.095308323141560 13.000000000000000
5.251954309807750 -9.058452342696143 0.030827121798471 12.000000000000000
5.240894967302285 -8.992648065974404 0.000631100319076 13.000000000000000
5.245292041176963 -9.036367322477791 -0.033835075125871 8.000000000000000
5.245329896092278 -8.991596001292550 -0.064438992056511 14.000000000000000
5.228768625103353 -8.996342140238951 -0.096509808916819 11.000000000000000
5.215936652570311 -9.008120151056742 -0.129789644655708 11.000000000000000
5.210593159411184 -8.978443299830866 -0.159869231998187 14.000000000000000
5.220045028756115 -8.950871952633001 -0.191669463583855 12.000000000000000
5.207150697860971 -8.962441099172738 -0.224105149172726 13.000000000000000
5.178694653910492 -8.900446760455701 -0.283385374394251 12.000000000000000
5.197895536209553 -8.971410161782876 -0.321941624869126 13.000000000000000
5.167665887213144 -8.895583941949880 -0.347535991487582 15.000000000000000
5.178826956853153 -8.906732971201354 -0.413254716843342 12.000000000000000
5.188162031662746 -8.959760912323187 -0.450551103417805 11.000000000000000
5.178291624720883 -8.896541760602920 -0.476390037777708 16.000000000000000
5.165042107801258 -8.907180377972473 -0.509852533530290 14.000000000000000
5.166731827173773 -8.890726389742367 -0.540206048301197 14.000000000000000
5.148971473524487 -8.848260303770966 -0.599864634971154 12.000000000000000
5.141103530379594 -8.869100213401747 -0.634284752801580 12.000000000000000
5.130863084603242 -8.805659047851599 -0.658405204878744 12.000000000000000
5.123131132232613 -8.826205017706462 -0.693142552703855 13.000000000000000
5.122663899995300 -8.805839751855926 -0.722597125151784 13.000000000000000
5.111059313948489 -8.819214705112552 -0.756130961053394 14.000000000000000
5.100621781126287 -8.755586833209453 -0.779592306892292 14.000000000000000
5.079149249841953 -8.712692914216381 -0.963831728737324 13.000000000000000
3.667951678076119 -6.328966197008480 -0.983590697540168 0.000000000000000
3.384631151625652 -5.840437145840076 -1.030497615249653 0.000000000000000
3.254316350590356 -5.587340419316476 -1.096803020493289 0.000000000000000
3.164967623207401 -5.463449866157498 -1.309082167784267 0.000000000000000
5.677637004513547 -9.883916205875492 2.678501237317540 22.000000000000000
5.475833226273781 -9.498066529726760 1.985335307630133 21.000000000000000
5.418947220664264 -9.375196922648488 0.959191086079077 21.000000000000000
5.383343864941753 -9.312437309808702 0.621458026638768 22.000000000000000
5.341215881797523 -9.230848873556456 0.421082318749462 14.000000000000000
5.317393032733665 -9.213101918435576 0.321757459477297 15.000000000000000
5.306731933834945 -9.229559703931610 0.288436731466734 14.000000000000000
5.302170078264201 -9.174874649544021 0.256149566577916 18.000000000000000
5.281019283230777 -9.151735088010270 0.191127894162377 15.000000000000000
5.294777985724899 -9.213708785425972 0.156268583809104 12.000000000000000
5.274723016695006 -9.130391066832544 0.125750975116963 16.000000000000000
5.260129560490621 -9.139257207403750 0.093057143628923 14.000000000000000
5.268389705710943 -9.108800824281525 0.060861749812372 14.000000000000000
5.249899829121656 -9.136416565046968 0.027580438407772 11.000000000000000
5.235414025784122 -9.063460263361250 -0.002448141971605 7.000000000000000
5.245243443949486 -9.117793426502097 -0.037682413825266 12.000000000000000
5.230426435234980 -9.044802470059190 -0.066829190960693 8.000000000000000
5.208138700070158 -9.038952875622140 -0.098355256355629 8.000000000000000
5.208786169491152 -9.056203440403570 -0.164312879370052 10.000000000000000
5.199560173170043 -8.993426802950712 -0.193760335834850 15.000000000000000
5.196016885807234 -9.022555490578304 -0.227615005671845 9.000000000000000
5.197795674625755 -8.980864282587241 -0.257688206093350 10.000000000000000
5.173465242775028 -8.970977808607376 -0.288046871010978 12.000000000000000
5.169869495882596 -8.980147926969583 -0.353803691839479 14.000000000000000
5.194239957696725 -8.980402390016749 -0.387622678027740 13.000000000000000
5.188560374722615 -9.005333521075654 -0.421322115656167 12.000000000000000
5.165497766224237 -8.952950405482445 -0.480661302240143 12.000000000000000
5.167181750845987 -8.991653227228799 -0.517241754020205 12.000000000000000
5.163259943863407 -8.964648246708762 -0.546652602525520 15.000000000000000
5.176014199529875 -8.943221790714635 -0.578248341229331 15.000000000000000
5.158839268647812 -8.946617899888963 -0.609540096061933 16.000000000000000
5.145151807781218 -8.956941015309496 -0.642976986410667 14.000000000000000
5.123988036715006 -8.872343034113166 -0.664735327324385 12.000000000000000
5.134865091458289 -8.927933062382088 -0.704073543151835 12.000000000000000
5.110051733477173 -8.861981852820200 -0.727887623011331 13.000000000000000
5.125743829334482 -8.881612417306137 -0.794686526082915 12.000000000000000
5.072454743873062 -8.779029627294582 -0.971779670372276 14.000000000000000
3.952642757136818 -6.875015715871916 -0.972815876560406 1.000000000000000
3.636114733839219 -6.327551898225321 -0.980834703178297 1.000000000000000
3.352781403524610 -5.834580752922619 -1.026590093229481 0.000000000000000
3.232306086906461 -5.598434879385595 -1.096989319197839 0.000000000000000
3.198929462786508 -5.531508219634690 -1.204793517378824 1.000000000000000
5.563058217380044 -9.757565155683656 2.648315167977643 22.000000000000000
5.427261056990570 -9.492396987084000 1.981478669163316 24.000000000000000
5.376287067746591 -9.379732838701800 0.958251649434949 23.000000000000000
5.337097181728548 -9.309780103212011 0.620915108500201 28.000000000000000
5.302779473271659 -9.242157481395290 0.420838960722842 15.000000000000000
5.321922267929716 -9.267689307730388 0.354090814885435 14.000000000000000
5.311036243646470 -9.284318252556607 0.320440903744644 16.000000000000000
5.302123493219899 -9.304307789156121 0.286864367634515 14.000000000000000
5.305410012091677 -9.263648181961535 0.254023106987504 16.000000000000000
5.298835425496804 -9.231415493370845 0.222127688996384 13.000000000000000
5.291737223183680 -9.254577645438243 0.188076844819295 13.000000000000000
5.261112319484901 -9.187322314001616 0.123926830452433 15.000000000000000
5.248313074888538 -9.199692335220410 0.090954724521700 12.000000000000000
5.262422106380166 -9.179786282987152 0.058130897988456 12.000000000000000
5.237016494813543 -9.148449940391416 -0.006269496959536 12.000000000000000
5.235320138685194 -9.181693832945749 -0.040546576150131 14.000000000000000
5.234019374240122 -9.133264525007206 -0.071308321014854 11.000000000000000
5.207900927413448 -9.120326833598488 -0.102626379270715 12.000000000000000
5.202764178955663 -9.064785167643313 -0.132648245102659 10.000000000000000
5.210238964880615 -9.141122690924536 -0.169246076848953 11.000000000000000
5.193860481952807 -9.064130538239244 -0.197897694011567 8.000000000000000
5.197630038628922 -9.107382306244306 -0.232998599195006 10.000000000000000
5.180901352005392 -9.030409737734646 -0.260502657711784 12.000000000000000
5.167804486069484 -9.041588038276371 -0.292709832306170 20.000000000000000
5.190462813773220 -9.038515444714140 -0.326483303250539 21.000000000000000
5.171543039222720 -9.064843825416402 -0.360073683701487 16.000000000000000
5.175417316306674 -9.026389865261821 -0.390531699609792 17.000000000000000
5.175223193566909 -9.061881683520404 -0.425338039522467 16.000000000000000
5.175065098282919 -9.016255941136798 -0.454697702203187 13.000000000000000
5.163599165807627 -9.030486228750034 -0.487100286278141 14.000000000000000
5.161199279579490 -9.042179031743649 -0.553485166708709 16.000000000000000
5.157290834507887 -8.989098585103292 -0.581716987149622 15.000000000000000
5.141932917793660 -8.995968681257940 -0.613508444933285 12.000000000000000
5.126051255854231 -8.956646221645256 -0.673222065238711 13.000000000000000
5.127317542667788 -8.994743087109860 -0.710575840519959 12.000000000000000
5.121333905738048 -8.963782518107939 -0.739084526457484 13.000000000000000
5.126396766413529 -8.927900773854999 -0.768545510419540 12.000000000000000
5.122077665894688 -8.955329712062744 -0.802622608100728 12.000000000000000
5.078381307935869 -8.869922172360754 -0.983557192118774 13.000000000000000
3.927957562654447 -6.892044502518674 -0.973728077052443 2.000000000000000
3.593540826687907 -6.305023872379438 -0.973625765372910 1.000000000000000
3.204935818399543 -5.599037870752454 -1.094514117623156 0.000000000000000
3.177107602512759 -5.542416581475727 -1.204976817321343 1.000000000000000
3.138097727462327 -5.463905303044514 -1.306211675392728 0.000000000000000
5.473342235857668 -9.675784142849219 2.627380754215986 24.000000000000000
5.404776664910901 -9.535612349808410 1.984705515430587 19.000000000000000
5.303707796340964 -9.327590358503736 0.954808841854864 24.000000000000000
5.298421512712535 -9.321060549418283 0.620530567594643 25.000000000000000
5.256836740455142 -9.239181032112842 0.420726054003103 17.000000000000000
5.290888739625483 -9.293052352922052 0.353672782979735 17.000000000000000
5.287418749305408 -9.323790347347581 0.319729619817757 16.000000000000000
5.211294146956361 -9.216390707204038 0.288933765501504 18.000000000000000
5.294991738429967 -9.327829413378851 0.252531678314641 16.000000000000000
5.288498405900790 -9.295561992716065 0.220488440619674 16.000000000000000
5.281257714338643 -9.318730663868967 0.186282542421001 14.000000000000000
5.292039551791046 -9.291943829800982 0.153816888821835 15.000000000000000
5.271466135026187 -9.290215614951059 0.120305212714780 16.000000000000000
5.267246393369121 -9.272041759955785 0.054427562120656 15.000000000000000
5.251106387289835 -9.221545366718487 0.023985293544220 13.000000000000000
5.230620684968765 -9.219443874043577 -0.009351883263064 14.000000000000000
5.223977822867668 -9.197154280245385 -0.074327117560121 14.000000000000000
5.212745043333274 -9.212412773032479 -0.107561487238229 13.000000000000000
5.215435059786818 -9.170876385683815 -0.138762980214143 14.000000000000000
5.200785634069947 -9.159622977560222 -0.203828635512082 14.000000000000000
5.193132537767908 -9.181744095140706 -0.237581382713823 14.000000000000000
5.186122772872938 -9.122274488028236 -0.266670898927033 12.000000000000000
5.159849943167779 -9.108744512149656 -0.297083004723113 12.000000000000000
5.188227143503759 -9.116260807152402 -0.331935305610026 15.000000000000000
5.159690150841874 -9.124962928234496 -0.364144514442922 15.000000000000000
5.176831647633636 -9.111139269571686 -0.397031035651557 14.000000000000000
5.168984248883722 -9.132559480718731 -0.430706360859556 12.000000000000000
5.159770749955097 -9.069255243013117 -0.458494972332358 14.000000000000000
5.150065111698266 -9.086983237331758 -0.491373116363193 15.000000000000000
5.157596630278223 -9.055149965924697 -0.522393606761344 15.000000000000000
5.149386472538497 -9.102193103376473 -0.558396675892513 15.000000000000000
5.156916680433944 -9.070154316407505 -0.589150314094595 14.000000000000000
5.139585807957797 -9.073479655208114 -0.620740740869291 14.000000000000000
5.133751184947844 -9.016804068924772 -0.648312676660205 12.000000000000000
5.118303527731051 -9.023492449300544 -0.679554997738386 11.000000000000000
5.115303037525629 -9.034126484362098 -0.746195013117135 13.000000000000000
5.116882412157429 -8.991165599790975 -0.774902386955157 12.000000000000000
5.121661190800883 -9.036163396926298 -0.811515586331859 12.000000000000000
5.076338365640641 -8.946951464611184 -0.993149321989347 12.000000000000000
5.014932330629724 -8.827265131709709 -1.165631946749670 12.000000000000000
3.333469975750591 -5.852998737605381 -1.028423156562982 0.000000000000000
3.188167750692555 -5.620407246408487 -1.097358565140365 0.000000000000000
3.149982431682339 -5.542851129525483 -1.202300816884016 1.000000000000000
3.116505497611344 -5.474601793924407 -1.306391447568991 1.000000000000000
5.420813333569904 -9.663232741770221 2.620668576091737 27.000000000000000
5.387586224446919 -9.589334811605390 1.989449313781311 25.000000000000000
5.270609081378008 -9.349362000896543 0.954659356546259 19.000000000000000
5.231833886331861 -9.279073480876642 0.619568543429975 22.000000000000000
5.237022299254887 -9.285576566852638 0.420166752762860 18.000000000000000
5.226218982259216 -9.254608169698569 0.354258088360721 17.000000000000000
5.174444345683727 -9.193199164182486 0.322260043217013 26.000000000000000
5.265595751740946 -9.356652708074590 0.251951405575572 15.000000000000000
5.285217056764752 -9.373913925554062 0.218437376112521 15.000000000000000
5.272247942447798 -9.386473241167414 0.184372721157450 14.000000000000000
5.286954702700057 -9.366741917322839 0.151489871606792 14.000000000000000
5.262595154224720 -9.357898995876583 0.118063729540298 16.000000000000000
5.258504276030094 -9.302593424149986 0.087052424617725 13.000000000000000
5.271488802769046 -9.364450659581117 0.050721509093841 14.000000000000000
5.259218779150796 -9.320948908764986 0.019694339816354 15.000000000000000
5.231207702839704 -9.304670102285446 -0.013177516840369 14.000000000000000
5.238041423973725 -9.270389868696784 -0.044791740227059 13.000000000000000
5.222831751230447 -9.278778804689052 -0.078392227605398 14.000000000000000
5.210708893186750 -9.245359619439585 -0.142787454965390 15.000000000000000
5.201868465992732 -9.208499194727535 -0.172961471789108 13.000000000000000
5.195986961929843 -9.234067554459628 -0.208225829698938 13.000000000000000
5.174073937049109 -9.182494854510827 -0.270325513791367 14.000000000000000
5.157034328628748 -9.186571723862460 -0.302330768106124 14.000000000000000
5.187365638242943 -9.197638892391115 -0.337692284390528 15.000000000000000
5.175864032947397 -9.192485062087723 -0.403206142482389 15.000000000000000
5.171951519311717 -9.175185138651841 -0.467541722763161 13.000000000000000
5.162052381140198 -9.192922463846003 -0.500706341271313 13.000000000000000
5.164310674135931 -9.150420671203946 -0.530906992930411 13.000000000000000
5.157885634353192 -9.154849570575790 -0.596982235316800 13.000000000000000
5.140443476285788 -9.158144916409551 -0.628791011482705 13.000000000000000
5.129391452411985 -9.090791469003561 -0.655329020187607 14.000000000000000
5.108304931398954 -9.086881064788587 -0.685457867474091 14.000000000000000
5.126767039008878 -9.075690036962973 -0.718852601400684 13.000000000000000
5.101484904066166 -9.090455682630228 -0.751488853151867 14.000000000000000
5.110676939729065 -9.061516874531069 -0.782192965024275 12.000000000000000
5.107860295254662 -9.092474543334985 -0.817066284274844 12.000000000000000
5.075652192168678 -9.027593372438044 -1.003290372326701 14.000000000000000
5.009083198055704 -8.897021673601047 -1.175159879193274 11.000000000000000
3.563671212830699 -6.306801613013498 -0.971606520644145 1.000000000000000
3.305231875671789 -5.853895246610959 -1.026152882777963 0.000000000000000
3.157294102546032 -5.613846728392339 -1.093106214358626 0.000000000000000
3.119406475144973 -5.536228197063899 -1.197717410949449 1.000000000000000
3.084460513361037 -5.464479894753707 -1.300465201116197 1.000000000000000
5.318804686347656 -9.544501155674824 1.980039907965375 20.000000000000000
5.233726597460077 -9.363935771637562 0.954198849956275 22.000000000000000
5.206245097249149 -9.314794590334690 0.619460285533590 22.000000000000000
5.226185777787315 -9.349693574212044 0.419446354967393 27.000000000000000
5.213681106450432 -9.315122912905609 0.353287400114759 28.000000000000000
5.217409180242827 -9.360017300865113 0.319120874711062 255.000000000000000
5.193371429823514 -9.266202637258420 0.287918534095621 32.000000000000000
5.182503723068704 -9.282531685389653 0.254020164398452 120.000000000000000
5.213080888307632 -9.321159478389031 0.220190644688979 104.000000000000000
5.260985266294444 -9.450725689010465 0.182576654476521 14.000000000000000
5.283260483173488 -9.445169197267676 0.149034736323230 13.000000000000000
5.258847075378680 -9.436278039760660 0.115405926077489 14.000000000000000
5.247671286724621 -9.366720420436177 0.084797303308371 13.000000000000000
5.252992296970967 -9.414472753594799 0.048957574214058 14.000000000000000
5.257463149101846 -9.402812484349781 0.016268043242580 21.000000000000000
5.245996152922062 -9.418387579069803 -0.018490064216490 15.000000000000000
5.238356030384759 -9.355682357848620 -0.048842037063496 14.000000000000000
5.221177120579533 -9.360512182111632 -0.082459120685381 15.000000000000000
5.207754484555793 -9.286957044683575 -0.111395464559284 15.000000000000000
5.212904671524517 -9.334094925900201 -0.147744448951927 17.000000000000000
5.196780692479383 -9.283019339456708 -0.177166206722790 16.000000000000000
5.194410583232620 -9.315682133287861 -0.213136917995355 16.000000000000000
5.191871949805975 -9.263268697750737 -0.242701278079759 16.000000000000000
5.181928224538256 -9.281682893784160 -0.277057416745234 13.000000000000000
5.187839558481400 -9.282666463060323 -0.343754544002298 15.000000000000000
5.162231590855200 -9.213403846981304 -0.370732748347583 14.000000000000000
5.181743802429284 -9.288092175332258 -0.410689541498799 14.000000000000000
5.167848502603767 -9.213909912640176 -0.437090365009427 12.000000000000000
5.174253147224771 -9.263642856456256 -0.474841548722326 11.000000000000000
5.151346316083043 -9.256630296075816 -0.505704803755051 12.000000000000000
5.163055159442885 -9.231731393563274 -0.537929192412916 13.000000000000000
5.161159355402054 -9.208133025231966 -0.568309654442036 13.000000000000000
5.152814556631639 -9.229075547897965 -0.603626272691633 14.000000000000000
5.117225790922198 -9.150750683984135 -0.660666427919141 11.000000000000000
5.107082299472572 -9.167966176616568 -0.693518695314634 11.000000000000000
5.114680361431112 -9.135601642398221 -0.724470795090687 12.000000000000000
5.104040101622890 -9.131942455023927 -0.789484854539791 12.000000000000000
5.101036857292609 -9.162911433493003 -0.824528835251641 13.000000000000000
5.058046897115769 -9.076688958007800 -1.008508250287530 14.000000000000000
5.013724158429807 -8.987903336781459 -1.188385309078539 11.000000000000000
3.535605612720944 -6.311963380144322 -0.970327255318275 1.000000000000000
3.277027323624281 -5.854674667070725 -1.023880693050196 0.000000000000000
3.135189206856325 -5.624609651685702 -1.093287202294331 0.000000000000000
3.099297032087097 -5.550337321479136 -1.198849076191502 1.000000000000000
3.066312773401906 -5.481915533085916 -1.302677075060873 1.000000000000000
5.386590847161132 -9.685368247322332 2.621066273436636 27.000000000000000
5.304975505113354 -9.605104428891259 1.985797155081297 23.000000000000000
5.218824393615300 -9.420984393374813 0.955616175521249 23.000000000000000
5.156614511391963 -9.304254990307410 0.618853212020647 50.000000000000000
5.209456717506029 -9.403194212685127 0.418822243760182 255.000000000000000
5.200782486465262 -9.375671257859208 0.352316027454485 255.000000000000000
5.184141124771169 -9.381503969654361 0.318751597576408 255.000000000000000
5.200916957174987 -9.365723139399462 0.285791600797446 255.000000000000000
5.175204148860322 -9.353642436517127 0.252348719975424 255.000000000000000
5.187262815596211 -9.356838393679020 0.219375836338820 255.000000000000000
5.275405746923792 -9.516591577372724 0.146831221381495 15.000000000000000
5.247285396372892 -9.500543172248481 0.113300642665959 15.000000000000000
5.236452354784682 -9.430893123031721 0.082541375916247 13.000000000000000
5.239710777074421 -9.475140945033575 0.046707141146194 15.000000000000000
5.246023111629181 -9.467034249988917 0.013708064954017 13.000000000000000
5.239973155246468 -9.444646262169544 -0.053091838114320 12.000000000000000
5.224506867441567 -9.453008308517070 -0.087155957257120 12.000000000000000
5.211495487680709 -9.379315442382739 -0.116335352009599 14.000000000000000
5.205377776825021 -9.405226238405472 -0.151539506494352 17.000000000000000
5.194901064966835 -9.364716728464582 -0.181860842106838 18.000000000000000
5.195981837039937 -9.404503224863081 -0.218562559144555 14.000000000000000
5.190102435737588 -9.344904037406037 -0.247823162231539 14.000000000000000
5.169023910556649 -9.342042094656568 -0.280714506526410 14.000000000000000
5.178625583507552 -9.350100898005522 -0.348302087551166 15.000000000000000
5.162384186487955 -9.298439415646365 -0.377008616432119 16.000000000000000
5.165100235219382 -9.341335329670702 -0.414255199255859 15.000000000000000
5.160706407993485 -9.284754220677796 -0.442461729216559 13.000000000000000
5.159548972816336 -9.320372073889766 -0.478992388094141 13.000000000000000
5.146660923140715 -9.284849864721865 -0.541964477424424 14.000000000000000
5.148468414738105 -9.268302432275377 -0.573223919796056 13.000000000000000
5.147285876499923 -9.303385790172230 -0.610271811241920 13.000000000000000
5.133447162733076 -9.228802696670744 -0.635210599684981 13.000000000000000
5.117476537142660 -9.235488540334202 -0.668946001749464 14.000000000000000
5.092617562717416 -9.224409041787151 -0.698560826655178 13.000000000000000
5.105888177004423 -9.202610188161536 -0.730976698095303 13.000000000000000
5.101946847647316 -9.175041650344401 -0.760420084073051 14.000000000000000
5.086045850638324 -9.181255211804363 -0.793978379378039 12.000000000000000
5.058274509559160 -9.161012585525855 -1.019199292295577 13.000000000000000
4.999713448135982 -9.043779063755803 -1.195451741551060 14.000000000000000
3.504022546690996 -6.309987793294177 -0.967562040092483 1.000000000000000
3.250598933467957 -5.858843109849731 -1.022427285486090 0.000000000000000
3.106147037981146 -5.621301831283311 -1.089918055872937 0.000000000000000
3.073970648301727 -5.553929652937196 -1.197120746205520 1.000000000000000
3.034387012854221 -5.471546287506598 -1.296746752991897 1.000000000000000
5.357687651707196 -9.717887737503958 2.623597149142304 22.000000000000000
5.201764001234610 -9.474486636808512 0.956877190787949 26.000000000000000
5.167264286685143 -9.410986238488702 0.619514959544928 109.000000000000000
5.165069927169462 -9.403296796809652 0.418684677389468 255.000000000000000
5.154669101100720 -9.372184719128823 0.352352026724371 255.000000000000000
5.138044767288046 -9.377951093741350 0.318859026833886 255.000000000000000
5.162148713425997 -9.376482265037444 0.285649663074261 255.000000000000000
5.125563367410356 -9.342948569016341 0.252780962505402 255.000000000000000
5.137557663353571 -9.346193480518366 0.219901953101537 255.000000000000000
5.251166272981023 -9.518576721486790 0.180664803472224 14.000000000000000
5.281714617847977 -9.616531982911297 0.143613229606978 13.000000000000000
5.228501216267822 -9.502219682826004 0.079984055947796 13.000000000000000
5.235175330371987 -9.553627210608944 0.043644809514058 13.000000000000000
5.232374810137646 -9.527742519661491 0.011320994128639 14.000000000000000
5.232609639378462 -9.479044651209042 -0.021020897411384 13.000000000000000
5.233734558643156 -9.519517795495977 -0.056553760019793 16.000000000000000
5.210883423370964 -9.513640801733274 -0.089970733361075 16.000000000000000
5.200046784513914 -9.443403259674016 -0.119509877353148 15.000000000000000
5.210158201104938 -9.501305831617289 -0.156966643828916 17.000000000000000
5.205260467612135 -9.471392867213638 -0.188267549076330 14.000000000000000
5.186001902144639 -9.423090193617364 -0.252678653962271 11.000000000000000
5.164845921943946 -9.420193841401936 -0.285771758731362 12.000000000000000
5.149953596595946 -9.342520899432381 -0.312831602052682 15.000000000000000
5.185369890827364 -9.449538599431305 -0.355581915001418 13.000000000000000
5.152905937998546 -9.365854682137744 -0.381712593596678 14.000000000000000
5.164471691415574 -9.426534543212306 -0.420762361525953 13.000000000000000
5.158592251873556 -9.366298293029425 -0.448848988433269 13.000000000000000
5.142694190060682 -9.373572366240678 -0.482793293844129 13.000000000000000
5.142078437392539 -9.323925389988938 -0.511065724466419 13.000000000000000
5.144488514898176 -9.366327812223737 -0.548989643790206 14.000000000000000
5.140869761201865 -9.339131205869348 -0.579293461823190 14.000000000000000
5.130428921909616 -9.356512677012756 -0.614537404517261 14.000000000000000
5.120563360469355 -9.288905913328971 -0.640406266529665 12.000000000000000
5.115382712508452 -9.316806016314255 -0.676807405868593 13.000000000000000
5.105755871493723 -9.287363650417355 -0.739701893970220 11.000000000000000
5.094619908453563 -9.245606202829457 -0.767534517534147 11.000000000000000
5.091278625449814 -9.276544682221727 -0.804539158475015 10.000000000000000
5.091965845816556 -9.229880295186947 -0.831514445639966 10.000000000000000
4.996142259530667 -9.120807508943036 -1.206216258014671 12.000000000000000
3.475994123049325 -6.314916831695738 -0.966278971256450 1.000000000000000
3.225910636253591 -5.866418589987154 -1.021792977749964 0.000000000000000
3.080589928774003 -5.624870602069281 -1.088321293706507 0.000000000000000
3.053773868490679 -5.567885132616873 -1.198249844530037 1.000000000000000
3.009367586058518 -5.474923557261716 -1.294884899753398 1.000000000000000
5.326831086268012 -9.746819092447479 2.625419276098289 22.000000000000000
5.281752087873112 -9.648063710109456 1.989028163672387 20.000000000000000
5.144568844193246 -9.449601216858248 0.954703786773126 20.000000000000000
5.095773244636471 -9.357407217506326 0.618452816035383 34.000000000000000
5.109880472254753 -9.381813138313083 0.418745485370807 255.000000000000000
5.112267642723284 -9.375636101301222 0.352278850442924 255.000000000000000
5.112477819340977 -9.365710764556281 0.285987857730159 255.000000000000000
5.081487351652259 -9.342722182996036 0.252942216583138 255.000000000000000
5.084367895120507 -9.328193366890257 0.220638186307905 255.000000000000000
5.266385010532799 -9.636338891007787 0.177141950097340 14.000000000000000
5.267450029598309 -9.677448272187821 0.141786712050338 16.000000000000000
5.242616302975836 -9.579088155552693 0.110639742322357 15.000000000000000
5.221928143460802 -9.577175590363980 0.077275178937684 13.000000000000000
5.223794313515419 -9.599167147874661 0.008411829777102 13.000000000000000
5.222495931958092 -9.546848851796319 -0.023923889115523 15.000000000000000
5.227034442436993 -9.594476240350247 -0.060017333687296 15.000000000000000
5.191838668009928 -9.514650466022241 -0.123127353148189 15.000000000000000
5.198057803987382 -9.565489948412369 -0.160298503450564 16.000000000000000
5.193230341973412 -9.535551163138608 -0.191744593984797 15.000000000000000
5.187915057978568 -9.475682432735335 -0.222708403305060 13.000000000000000
5.181415962460085 -9.501376113281953 -0.257536009307636 13.000000000000000
5.152934150750915 -9.434854407923547 -0.319250393529703 11.000000000000000
5.184255282872329 -9.534913546995892 -0.361650104298532 14.000000000000000
5.159281236969923 -9.465316651259966 -0.389251663793423 12.000000000000000
5.146927082552919 -9.430196354369558 -0.453546242754167 11.000000000000000
5.136345991416248 -9.448097416872088 -0.488696619319170 13.000000000000000
5.134210290623320 -9.394825535914395 -0.516789389653224 13.000000000000000
5.130983252754268 -9.426601571808057 -0.553773513178585 13.000000000000000
5.134641867750423 -9.413577056769702 -0.585749157089744 14.000000000000000
5.133052700303575 -9.448690692810189 -0.623169844323015 14.000000000000000
5.119960773406348 -9.373866250203660 -0.648461713186553 14.000000000000000
5.118181217682380 -9.408871160717270 -0.685931908869320 12.000000000000000
5.099502943182835 -9.323379314694726 -0.708782781407508 13.000000000000000
5.097886263987220 -9.358053932555759 -0.746653910863577 14.000000000000000
5.086860647259126 -9.316240004655098 -0.774650157797261 12.000000000000000
5.085128178658701 -9.350721625845777 -0.812301409540224 12.000000000000000
5.086092811789701 -9.303989027382803 -0.839457492371073 12.000000000000000
5.048975888581917 -9.227811980065935 -1.027155427384451 14.000000000000000
3.736815642068736 -6.841868342415628 -0.952220473836792 0.000000000000000
3.449709997165289 -6.323262024257787 -0.965736366803661 1.000000000000000
3.202925773260351 -5.877412187059956 -1.021977881296646 0.000000000000000
3.036903023428132 -5.588774847283014 -1.201284496730637 1.000000000000000
2.984360069003164 -5.478208718294011 -1.293021628000641 1.000000000000000
5.260258872777109 -9.705436878523937 2.613036906549826 24.000000000000000
5.285210939037316 -9.744077584569903 1.999836552079655 15.000000000000000
5.110979293128477 -9.470848423617221 0.954562752304414 22.000000000000000
5.058874217221113 -9.371341479829995 0.618121412895554 26.000000000000000
5.062095173609110 -9.374358928837358 0.418679939543226 255.000000000000000
5.062701914057451 -9.364628599659916 0.352433392399792 255.000000000000000
5.090227702153380 -9.370631888967619 0.319037770117808 255.000000000000000
5.066548995197704 -9.361855694180315 0.286170332818714 255.000000000000000
5.035676325327104 -9.338744985493534 0.253198043762438 255.000000000000000
5.047548211126976 -9.342088975462394 0.220448802628422 49.000000000000000
5.259179157403773 -9.711512570767937 0.174996807324298 17.000000000000000
5.272623415985068 -9.777657725478756 0.138563944835763 16.000000000000000
5.242881501829731 -9.668421390682878 0.107561037678583 14.000000000000000
5.231110427086244 -9.684320737488571 0.073210453519278 13.000000000000000
5.230153756204468 -9.632197020079753 0.040581149921720 13.000000000000000
5.227359578248813 -9.695639439290925 0.004283727495499 13.000000000000000
5.215579393524083 -9.621826757323218 -0.027199395544527 13.000000000000000
5.218073356795594 -9.665944270816732 -0.063284594743788 13.000000000000000
5.211348238351441 -9.602803302272287 -0.094462061110216 14.000000000000000
5.186795724020155 -9.593092454581097 -0.127188488036094 13.000000000000000
5.195184331803781 -9.628273746703913 -0.197178497805568 14.000000000000000
5.192035729275246 -9.571847593164442 -0.228650800000239 16.000000000000000
5.190727765910757 -9.608257231461893 -0.264540796287784 15.000000000000000
5.178230865396681 -9.534025279298293 -0.293630844280486 14.000000000000000
5.160728275433664 -9.538012120995656 -0.326546392073502 13.000000000000000
5.154254268923140 -9.543579247049104 -0.394903609311780 14.000000000000000
5.159705559602048 -9.504729703841477 -0.426617446626748 11.000000000000000
5.143856550449804 -9.511925732561735 -0.459936855127433 11.000000000000000
5.124110687888344 -9.462237335362463 -0.522152392821075 13.000000000000000
5.138617469700535 -9.529590701805150 -0.563045339782072 12.000000000000000
5.135123347692486 -9.502321747896813 -0.593746663230907 16.000000000000000
5.111651236469593 -9.444735418578125 -0.654885094675927 11.000000000000000
5.109670177664051 -9.479756014545481 -0.692535703911051 13.000000000000000
5.100372476543249 -9.411871153447876 -0.717712511148724 13.000000000000000
5.096738771706120 -9.443017703199407 -0.755382830160517 14.000000000000000
5.082246126463878 -9.394036498440649 -0.782676864335208 16.000000000000000
5.085133005750557 -9.388811800571688 -0.848836482302438 13.000000000000000
5.037482660673446 -9.291129362867091 -1.034565015603115 13.000000000000000
3.719134419874384 -6.872322619007367 -0.955863413677390 0.000000000000000
3.418234095994080 -6.320906746530419 -0.962964836991552 1.000000000000000
3.179902167866109 -5.888332973462532 -1.022161673231977 0.000000000000000
3.063544959187992 -5.645896387838830 -1.091160227547749 0.000000000000000
2.959364853592814 -5.481394784221987 -1.291156739078011 2.000000000000000
5.277070301746026 -9.829051519493316 2.634038079964348 19.000000000000000
5.270240919119727 -9.804788190214046 2.005592006777890 19.000000000000000
5.102295550466070 -9.542050741901773 0.956605832653689 20.000000000000000
4.989804415868191 -9.320700601579532 0.617108066607073 28.000000000000000
5.016208513903116 -9.370261586721689 0.418585456551677 255.000000000000000
5.015061527527219 -9.356976083927888 0.352535256064681 255.000000000000000
5.037137643682659 -9.352380025535743 0.319423964317822 255.000000000000000
5.017128260656810 -9.350639002499882 0.286516107007706 255.000000000000000
4.982815757233734 -9.320255726805602 0.253824396335155 255.000000000000000
5.008906251967976 -9.352259925081770 0.220365491405732 39.000000000000000
5.255096192218979 -9.793916361522481 0.172619503061304 16.000000000000000
5.249764255487404 -9.772169064544268 0.103924480994625 15.000000000000000
5.230658976158637 -9.773771107522862 0.069895851227910 15.000000000000000
5.240813893459420 -9.742994676153630 0.036053127660345 13.000000000000000
5.209993145246420 -9.700460496590241 -0.030662590071980 15.000000000000000
5.214035388385261 -9.748194411075987 -0.067146414904126 14.000000000000000
5.200488916450402 -9.670678506493605 -0.097697963155886 16.000000000000000
5.183055451239517 -9.675183180604840 -0.131472060676555 15.000000000000000
5.199934221859915 -9.658253886168103 -0.165496864728094 14.000000000000000
5.189416396300151 -9.706834255712806 -0.201635825321228 16.000000000000000
5.190173256764505 -9.657470225194617 -0.233826260142722 13.000000000000000
5.190426377606456 -9.697479955676437 -0.270207155172998 15.000000000000000
5.190881008318226 -9.648071741035217 -0.301493660183807 16.000000000000000
5.166075559066794 -9.637768398226786 -0.333553345024166 14.000000000000000
5.187986997221316 -9.631097526003765 -0.368631549718212 14.000000000000000
5.145177637053794 -9.614783629264748 -0.399926413960267 12.000000000000000
5.156242787509823 -9.586584807703202 -0.432801429899460 11.000000000000000
5.143842428032523 -9.600884470012728 -0.467006580018494 11.000000000000000
5.138489146494464 -9.540498828677984 -0.496353792547346 11.000000000000000
5.133233596590515 -9.568864832971368 -0.531497415355289 12.000000000000000
5.119026550068399 -9.559127258418776 -0.598279100161027 14.000000000000000
5.115438285275418 -9.501892345503633 -0.627436852098374 13.000000000000000
5.110030919488564 -9.529901668815898 -0.662944134937359 12.000000000000000
5.088208109068119 -9.475594977670726 -0.723621223544187 14.000000000000000
5.091503791220833 -9.520982042837307 -0.763225830875355 13.000000000000000
5.075371428471374 -9.468355363970637 -0.790249688375099 12.000000000000000
5.076735255665945 -9.421434546101256 -0.819598443817515 13.000000000000000
5.071193252766564 -9.448891775361988 -0.854869473778567 12.000000000000000
5.032704084031502 -9.368657918645672 -1.044165988701671 13.000000000000000
3.664979503236217 -6.828370116447751 -0.945105882168927 0.000000000000000
3.385102813895490 -6.314886425614715 -0.959448862958137 1.000000000000000
3.153452463221639 -5.892114119575007 -1.020701977725487 0.000000000000000
3.037949745592082 -5.649299491512192 -1.089560867916386 0.000000000000000
3.014876739505312 -5.599117690789685 -1.201458624083978 1.000000000000000
2.934382596044205 -5.484482126577110 -1.289290233426423 36.000000000000000
5.286066041383421 -9.938812725660332 2.652194882940123 26.000000000000000
5.196503258776976 -9.748324253493994 1.994683572125201 23.000000000000000
5.149914891392407 -9.644397043549224 1.368874814668454 21.000000000000000
4.986738817274397 -9.402377995573859 0.617503317382163 47.000000000000000
4.972183919500362 -9.369564117012791 0.418460955307019 255.000000000000000
4.963984174010841 -9.341945328891315 0.352753383783363 255.000000000000000
4.989583758433794 -9.344621113391689 0.319609886750665 255.000000000000000
4.962513263494612 -9.328463888247535 0.287105038675350 255.000000000000000
4.970253249269394 -9.362295826346243 0.220284089748249 20.000000000000000
5.241597660730733 -9.858517088448002 0.170817214773958 17.000000000000000
5.252132581018691 -9.827963634677754 0.137116326132274 17.000000000000000
5.222121003693951 -9.808102380853134 0.102925888795404 16.000000000000000
5.206544002986462 -9.816809417057147 0.068537975460892 14.000000000000000
5.224000378297760 -9.800345148067519 0.033960638843147 16.000000000000000
5.223172861083402 -9.777947936408779 0.000849775868540 16.000000000000000
5.214597599273604 -9.800644490770692 -0.035244085250863 15.000000000000000
5.205249718455264 -9.770780145680710 -0.102822201734934 15.000000000000000
5.187681940153442 -9.775269333078423 -0.136864882051837 15.000000000000000
5.197657800747914 -9.744008836117827 -0.170230983465277 15.000000000000000
5.182438457376256 -9.732482910257017 -0.238233414064861 16.000000000000000
5.186016961930172 -9.779674179243861 -0.275338774851915 14.000000000000000
5.170757085146227 -9.698048536943087 -0.304315970311844 15.000000000000000
5.149493356788930 -9.694820744792958 -0.337062129578884 16.000000000000000
5.175074718763167 -9.695313989773577 -0.372881691764151 19.000000000000000
5.155822649625024 -9.675677115002845 -0.439641400104819 13.000000000000000
5.137954034908338 -9.679255335559148 -0.473062260287530 12.000000000000000
5.138269267382609 -9.629471421595467 -0.503662776371508 13.000000000000000
5.123947737522882 -9.640013856607263 -0.537225539277398 15.000000000000000
5.133137330172476 -9.607814580611588 -0.569701981147898 15.000000000000000
5.113197180332173 -9.637362164513270 -0.605124055493847 16.000000000000000
5.117029693587781 -9.594286564865209 -0.636073268759759 13.000000000000000
5.097263646472507 -9.593792995038372 -0.668552764685146 12.000000000000000
5.102498776090483 -9.554263827840412 -0.699561280459506 15.000000000000000
5.080967898643233 -9.550051008322201 -0.730826885023203 13.000000000000000
5.069801121824645 -9.546321695701250 -0.798279391901626 13.000000000000000
5.069679369464803 -9.495767331057857 -0.827363598064242 13.000000000000000
5.056894312191986 -9.508997377581196 -0.860902959877725 12.000000000000000
4.812462160922702 -9.013306371042933 -0.986941769814693 22.000000000000000
3.662667787432448 -6.890560475455533 -0.954917971640577 0.000000000000000
3.363953867858561 -6.333527660766816 -0.961128522903565 1.000000000000000
3.130376134632503 -5.902861993231811 -1.020882975138812 0.000000000000000
3.009015634814415 -5.645557634883421 -1.086184596869268 0.000000000000000
2.987806031074269 -5.598860170532298 -1.198771347368897 1.000000000000000
2.906112486204699 -5.480473460345598 -1.285385797111677 18.000000000000000
5.306554477649328 -10.073473883881400 2.675318349756133 24.000000000000000
5.175947444528134 -9.798200980761372 1.998926953761003 20.000000000000000
5.066584683170085 -9.559580128888850 0.956311141194505 18.000000000000000
4.977708565521168 -9.422796608849380 0.584546944267958 255.000000000000000
4.922941387100663 -9.357908105417152 0.418438419640287 255.000000000000000
4.916597557293148 -9.333861488177529 0.352862282353145 255.000000000000000
4.942143523397347 -9.336645889292694 0.319799483501615 255.000000000000000
4.918702482138447 -9.327562088904568 0.287217953405442 255.000000000000000
4.930143713457603 -9.301520021974536 0.254454850810639 255.000000000000000
4.857642569970381 -9.221396274761107 0.224556598802778 5.000000000000000
5.238318035652893 -9.944668741616750 0.168321632681974 15.000000000000000
5.245553659353852 -9.906912121366569 0.134652107085847 14.000000000000000
5.217295953964229 -9.890561157247541 0.100120181189098 15.000000000000000
5.222792836213499 -9.889948070477438 0.030403575389290 14.000000000000000
5.218472252677499 -9.860365230318820 -0.002586232156811 17.000000000000000
5.207960517315886 -9.879484480955437 -0.038710864098271 16.000000000000000
5.209484414370808 -9.830541342230118 -0.071009919329874 15.000000000000000
