# This PCD file was generated using the MATLAB® pcwrite function
# from Computer Vision Toolbox®.
# .PCD v.7 - Point Cloud Data file format
VERSION .7
FIELDS x y z intensity
SIZE 8 8 8 8
TYPE F F F F
COUNT 1 1 1 1
WIDTH 627
HEIGHT 1
VIEWPOINT 0 0 0 1 0 0 0
POINTS 627
DATA ascii
21.401603382252617 -26.397856219923831 1.309239296312608 39.000000000000000
21.433934200767496 -26.416154539180425 1.104972564785058 50.000000000000000
21.471166991974403 -26.355382999303828 1.005126210829632 44.000000000000000
21.412604567044230 -26.425230274919173 0.902043940723154 48.000000000000000
21.474391670636987 -26.394784270879430 0.802094192164623 45.000000000000000
21.429049738988326 -26.422573401609903 0.698397198971409 42.000000000000000
21.492454127058537 -26.395278871706196 0.598407138958380 46.000000000000000
21.446736329238686 -26.422668491211731 0.494779384992937 44.000000000000000
19.304017783275164 -23.739730071579604 0.312687978441165 20.000000000000000
19.271417359761852 -23.775802824201389 0.220923466881741 22.000000000000000
19.291798886186115 -23.704395314063010 0.130286465839037 19.000000000000000
19.273339899881407 -23.759332636015834 0.037721948878114 16.000000000000000
19.303221569375619 -23.700134874423291 -0.052317623953103 18.000000000000000
21.439530268453272 -26.440047132590905 -0.319596635060669 46.000000000000000
21.406899137811958 -26.375550781584362 -0.521098607928995 7.000000000000000
19.409788045979361 -23.826368848807853 -0.608287034460793 9.000000000000000
19.370401862097580 -23.806215278196028 -0.791471591050233 26.000000000000000
19.338088371333569 -23.843052089552295 -0.886007510328332 12.000000000000000
19.381392847486293 -23.800716490310272 -0.976580624076056 27.000000000000000
19.358233975667055 -23.850020710133411 -1.070861724594874 11.000000000000000
18.851871512466126 -23.282918019226866 -1.121680271964477 7.000000000000000
18.211109614551876 -22.375379143296488 -1.149238246153161 10.000000000000000
17.462144608473931 -21.537086810731306 -1.168961626150119 7.000000000000000
16.403744652928967 -20.171165388202660 -1.223447345309332 6.000000000000000
15.449535255844575 -19.082837014996933 -1.276242640914380 5.000000000000000
15.014974024939681 -18.451050352764167 -1.294509415974680 6.000000000000000
14.421549234566072 -17.780292839479031 -1.297915100222168 5.000000000000000
13.966748448712952 -17.254875268776360 -1.312882006626852 4.000000000000000
13.733677485982957 -16.885852121878422 -1.342142109750309 4.000000000000000
12.983802316123411 -16.034109022149494 -1.372250302951107 6.000000000000000
12.706849686043958 -15.613730289824312 -1.389446903800232 5.000000000000000
12.242299114367189 -15.086370976628661 -1.384574295567917 6.000000000000000
11.924849097046142 -14.727060446873487 -1.397937688743542 5.000000000000000
11.775673818212779 -14.475193962878503 -1.424321844308741 4.000000000000000
11.448982195744208 -14.103179512169792 -1.430873467398902 5.000000000000000
11.023804550364945 -13.546060190941636 -1.463389202995381 5.000000000000000
10.793297279044156 -13.306071670981442 -1.480538441705566 6.000000000000000
10.483058360238967 -12.896686440851987 -1.522881041614822 5.000000000000000
9.428951508485467 -11.608540259195104 -1.600848387913685 9.000000000000000
2.498760730711640 -3.076701772953118 -0.509128128988966 6.000000000000000
2.470578078938982 -3.032025371855124 -0.576497222975859 2.000000000000000
2.426930343610059 -2.991049498272321 -0.640571281937241 0.000000000000000
21.299592183652926 -26.462137362772303 1.307793652450328 33.000000000000000
21.329420115937349 -26.477411526831776 1.103533292114132 47.000000000000000
21.376753271720972 -26.429359493596635 1.003963553135240 41.000000000000000
21.315359655536852 -26.495852430086885 0.900823988294016 48.000000000000000
21.372323937560054 -26.459337234843030 0.800818338639554 43.000000000000000
21.321983632321921 -26.480649875009675 0.697119171019921 40.000000000000000
21.382997140180702 -26.450465948849995 0.597176646730778 44.000000000000000
21.344631690592010 -26.487116708097318 0.493620393175283 41.000000000000000
21.403270019296631 -26.453197405268888 0.393619296993331 42.000000000000000
21.335789128339876 -26.512279470722305 0.289716470334660 43.000000000000000
19.245999110043769 -23.821148385121596 0.128449569272066 12.000000000000000
19.242692252800598 -23.798026348637851 -0.054090854922783 2.000000000000000
21.410727469335811 -26.453084560503363 -0.218607958981562 48.000000000000000
21.344634267814786 -26.513910146864859 -0.320772737498833 47.000000000000000
21.404375703058047 -26.480790326798981 -0.422891451887864 14.000000000000000
21.299933668020998 -26.433558493861042 -0.521668222955057 8.000000000000000
21.326489009209634 -26.359387467269283 -0.622431945785304 4.000000000000000
21.290927619694617 -26.399536207050961 -0.723549284274206 3.000000000000000
21.260014485122142 -26.445843545791501 -0.827415321234649 5.000000000000000
21.258124461901556 -26.393449529794943 -0.926161735751377 6.000000000000000
20.074710254496953 -24.861016167089510 -1.037844657972133 13.000000000000000
19.375750235539691 -24.048825395843274 -1.080418079142172 10.000000000000000
18.157570363635593 -22.472590879483604 -1.152710093808515 10.000000000000000
17.406398463114876 -21.625465014655859 -1.172056953720603 7.000000000000000
16.790999659703754 -20.749091913718722 -1.190066599135939 5.000000000000000
16.343017930185265 -20.243235694597875 -1.225648011595745 6.000000000000000
14.989684912344828 -18.556066787409428 -1.300364421474152 6.000000000000000
14.366615812528924 -17.842338341738628 -1.299938210866043 5.000000000000000
13.694112290419421 -16.961256227730669 -1.345875623232295 4.000000000000000
13.254066294648664 -16.449561202750708 -1.354738680899328 5.000000000000000
12.657153831709085 -15.666636024384827 -1.391235171964922 5.000000000000000
12.196720228212481 -15.140819845853066 -1.386758325844402 5.000000000000000
11.717733527982654 -14.509085556524637 -1.424159923136570 4.000000000000000
11.402050753654136 -14.148563008215216 -1.432323274349530 5.000000000000000
10.993382275414415 -13.608887593866923 -1.467481861017305 6.000000000000000
10.761099356456723 -13.364987818376678 -1.484268091428919 6.000000000000000
10.600732030197850 -13.102036563064596 -1.501592809877106 6.000000000000000
10.466792595543168 -12.973445799119697 -1.529582633110645 5.000000000000000
2.539218738081020 -3.140286391768601 -0.444705249230332 0.000000000000000
2.502402986616438 -3.110838363721637 -0.516329106677591 0.000000000000000
2.465892581174574 -3.052890129782551 -0.580426504421209 0.000000000000000
21.194934573643081 -26.522887068391569 1.306260919038908 37.000000000000000
21.229646348931002 -26.544581623060854 1.102236907463602 45.000000000000000
21.272229240025375 -26.490403085408381 1.002576745826847 42.000000000000000
21.220330770638704 -26.569286275858524 0.899653871804875 46.000000000000000
21.274983143304354 -26.529815520704393 0.799614893160075 42.000000000000000
21.224588054543453 -26.550947901059505 0.695933038860585 40.000000000000000
21.288179444944479 -26.524134098355272 0.596011966113388 43.000000000000000
21.244789817969423 -26.554338194759637 0.492464546376549 37.000000000000000
21.301090134934451 -26.517482650093420 0.392500606320720 42.000000000000000
21.223495257181085 -26.563671022046407 0.288724862057972 43.000000000000000
21.286888993111496 -26.535409190360291 0.188014875539433 45.000000000000000
21.240248923811130 -26.561457828262277 0.085760922405767 44.000000000000000
21.300312128473422 -26.530022476706851 -0.015565520082986 46.000000000000000
21.263144892533543 -26.568316574340457 -0.117416076758715 41.000000000000000
21.318371212672339 -26.529998278581218 -0.219852534430713 44.000000000000000
21.244571759029864 -26.581128285312158 -0.321751751269895 45.000000000000000
21.282296525810004 -26.519857061040842 -0.422874201389883 17.000000000000000
21.197729519412857 -26.497467699237212 -0.522471791376935 7.000000000000000
21.251619503377778 -26.458058271445989 -0.624647158074313 9.000000000000000
21.196243186047983 -26.472880662567984 -0.724706156659022 4.000000000000000
21.165810390343985 -26.469835222242875 -0.927495580013688 7.000000000000000
19.555418753703886 -24.478012889585894 -0.916583556744355 0.000000000000000
20.152221724969849 -25.144524277474414 -1.051905681699236 12.000000000000000
19.321080407694200 -24.156528020129318 -1.084106872798581 11.000000000000000
18.096216740711601 -22.560241390797586 -1.155502601759177 8.000000000000000
17.342923047293397 -21.704244321598601 -1.174438034604251 6.000000000000000
16.733091756731188 -20.828830126373955 -1.192732490441893 5.000000000000000
16.299072062408687 -20.337241867511295 -1.229675860969353 6.000000000000000
15.666340929604726 -19.585151939826179 -1.241718652413442 7.000000000000000
14.922407127033775 -18.607464699238733 -1.301175959165381 5.000000000000000
14.306566783846193 -17.897876353000164 -1.301342605916560 6.000000000000000
13.918520269098634 -17.321665059601322 -1.315566639524370 4.000000000000000
13.639616720682659 -17.017627498169148 -1.347617955386837 3.000000000000000
13.215900884715994 -16.523394830829396 -1.358553415323889 5.000000000000000
12.609661433979499 -15.722555017992573 -1.393388685121167 5.000000000000000
12.160553986462299 -15.207835638706898 -1.390455053692006 5.000000000000000
11.875690317332827 -14.774108594784089 -1.399370166924529 5.000000000000000
11.674173564641878 -14.561746673224556 -1.426406395347254 4.000000000000000
11.359751611139727 -14.200115236122844 -1.434598906116570 5.000000000000000
10.974691252416315 -13.687494449239903 -1.473760396760819 5.000000000000000
10.733410945479550 -13.430190966225497 -1.488894270906873 6.000000000000000
10.578844295138119 -13.172955640651811 -1.507235835458118 5.000000000000000
10.440521072851864 -13.037590528761909 -1.534398556392179 5.000000000000000
2.546939115334528 -3.181248206219820 -0.453010683923604 0.000000000000000
7.590412381884304 -9.481327095176761 -1.671777779652270 7.000000000000000
2.458992860339510 -3.070494021141080 -0.583406970159475 0.000000000000000
2.438979256220243 -3.037813002000927 -0.652868609034318 0.000000000000000
21.094992019691535 -26.589569020338310 1.304918209566448 42.000000000000000
21.129659529680119 -26.611387057105688 1.100945569831535 35.000000000000000
21.172438071036954 -26.557357556741927 1.001309790950889 38.000000000000000
21.117718937523925 -26.632885015640110 0.898353392799095 43.000000000000000
21.170057062894692 -26.590436733059004 0.798316122637299 41.000000000000000
21.126956275913148 -26.620896622309658 0.694751717462236 36.000000000000000
21.190654494599990 -26.594309841662465 0.594842161395722 38.000000000000000
21.144734888813442 -26.621195020157735 0.491313865724839 38.000000000000000
21.203621974960104 -26.587696663090497 0.391359629461693 37.000000000000000
21.125755364330235 -26.633615636650429 0.287585010280311 47.000000000000000
21.186808343095993 -26.602396868020264 0.186924110235079 43.000000000000000
21.137660816676920 -26.625130507076701 0.084748155991311 41.000000000000000
21.197830410911639 -26.593918944621475 -0.016543260499193 42.000000000000000
21.153222065518680 -26.622580356333621 -0.118135269902264 45.000000000000000
19.483360592591747 -24.494982535931094 -0.257160314080832 2.000000000000000
19.455909890911613 -24.539472213761968 -0.352501406734113 12.000000000000000
21.189586464319380 -26.596313575672276 -0.424147755909098 17.000000000000000
19.456392516967657 -24.520069187975217 -0.540110447906160 15.000000000000000
21.149360546273332 -26.521789364434888 -0.625409617378567 8.000000000000000
19.476134952527662 -24.525216254993719 -0.728136704413566 5.000000000000000
19.510546092869273 -24.521005306135077 -0.821882834818858 13.000000000000000
19.467367857848291 -24.545310246057543 -0.917654864185316 9.000000000000000
19.524380556137018 -24.518376529302817 -1.011031110579811 18.000000000000000
19.302462016374101 -24.311616974816779 -1.090835734342333 8.000000000000000
18.032027033683601 -22.644590751615965 -1.158067231995236 7.000000000000000
17.269387359511299 -21.770156102753720 -1.175865708712715 6.000000000000000
16.689437536999151 -20.927425373003032 -1.196895474929185 4.000000000000000
16.227931511210603 -20.396366174845880 -1.230827315469591 6.000000000000000
15.619671307292188 -19.670598441642870 -1.245305680664339 7.000000000000000
14.871931634622673 -18.680792192372774 -1.304062489931577 5.000000000000000
14.270455319829692 -17.984974151776466 -1.305828656100038 6.000000000000000
13.889361970936642 -17.413678514311979 -1.320812300687999 4.000000000000000
13.625969702786751 -17.127727817021302 -1.355000592912892 4.000000000000000
13.167731064504972 -16.584458696415439 -1.360992064851154 5.000000000000000
12.569163225131405 -15.787851091454357 -1.396642376785373 5.000000000000000
12.119260264327879 -15.268438232554994 -1.393393936502443 5.000000000000000
11.838379278451651 -14.836855248778345 -1.402753205619122 5.000000000000000
11.644794372911674 -14.633328024697155 -1.431063734209327 5.000000000000000
11.310036353130867 -14.242045048295438 -1.435631056814362 5.000000000000000
10.945990535632180 -13.753456722304815 -1.478290537177056 5.000000000000000
10.700620501220746 -13.489014252593831 -1.492623212308707 6.000000000000000
10.551800248447273 -13.237544750755255 -1.511958523805742 6.000000000000000
10.418696760224163 -13.108060098695230 -1.540158188947042 6.000000000000000
2.550182992344703 -3.215711084486713 -0.459683845428160 1.000000000000000
2.493226970484780 -3.125321543124898 -0.518230826813357 12.000000000000000
2.454075866475307 -3.091375717718236 -0.587336783939664 3.000000000000000
2.429993795639255 -3.052034986905941 -0.655028064942795 1.000000000000000
20.994838265279743 -26.655884135371103 1.303580749865509 38.000000000000000
21.027023958042580 -26.674642414122914 1.099590941047854 50.000000000000000
21.082195786290033 -26.636627083949897 1.000275283489588 45.000000000000000
21.074713657227775 -26.663363108921811 0.797156018262083 43.000000000000000
21.033956837296770 -26.696847018224560 0.693617813653331 42.000000000000000
21.097773472288353 -26.670477435932909 0.593696409311229 49.000000000000000
21.044466057416695 -26.687676427439481 0.490168284556707 42.000000000000000
21.096151932916410 -26.644896858491123 0.390279005355228 45.000000000000000
21.032642883502639 -26.709541562363583 0.286398436072180 49.000000000000000
21.091391587912366 -26.675379770058814 0.185763016166773 46.000000000000000
21.042180821960564 -26.697940523651333 0.083592383077112 44.000000000000000
21.107358994106793 -26.673277096107125 -0.017821285522452 48.000000000000000
21.062659107972749 -26.701781948400260 -0.119431783867718 44.000000000000000
19.402556383026301 -24.571536126179900 -0.258520154518099 2.000000000000000
21.000048660247636 -26.633657031775989 -0.524423283864273 6.000000000000000
19.413810837997563 -24.545110728374272 -0.633026191750994 2.000000000000000
20.963330577711297 -26.599436508375895 -0.928979732236457 7.000000000000000
20.143927679165195 -25.508031774862069 -1.067659273845281 4.000000000000000
19.198040709287550 -24.355822563842207 -1.090468279890207 8.000000000000000
17.991747401481035 -22.760480365331841 -1.162893789598229 6.000000000000000
17.185926414607593 -21.823136254467247 -1.176338676047737 6.000000000000000
16.638020755677999 -21.016462408559423 -1.200308685919095 6.000000000000000
16.161409880429158 -20.461599359876949 -1.232498724646220 5.000000000000000
15.567762241658309 -19.749590863265233 -1.248344801755466 7.000000000000000
14.818705410473346 -18.750826339664918 -1.306650612224938 6.000000000000000
14.226690972673346 -18.062501194168977 -1.309389169202647 5.000000000000000
13.840442084141408 -17.480298391575019 -1.323495204851301 4.000000000000000
13.544363533692401 -17.148945141539059 -1.353088402090145 4.000000000000000
13.124090284065169 -16.651779109741710 -1.364117339513405 5.000000000000000
12.525956851137906 -15.849885295684590 -1.399527748971732 5.000000000000000
12.077686598102245 -15.328946265034183 -1.396331759500806 5.000000000000000
11.798372927163214 -14.896350630076103 -1.405744878834037 5.000000000000000
11.591144348965683 -14.673066295610266 -1.431699261886505 4.000000000000000
11.264932715817329 -14.290177356786895 -1.437489351648955 5.000000000000000
10.914570854910201 -13.816213279586954 -1.482383127463142 5.000000000000000
10.672294798368823 -13.554155302601966 -1.497249161023676 6.000000000000000
10.524429156883199 -13.302113199153501 -1.516681225877571 5.000000000000000
10.384623618858528 -13.162636377863782 -1.543558595695772 6.000000000000000
9.435272311424718 -11.977737399818364 -1.644043177758810 10.000000000000000
2.488152980543483 -3.146376564946191 -0.521899467241023 0.000000000000000
2.416809940889378 -3.059683197076247 -0.655159111818565 0.000000000000000
20.906578183025943 -26.737747618177849 1.302708393252761 38.000000000000000
20.931469968385880 -26.747068692834880 1.098446561705139 53.000000000000000
20.981934930245046 -26.702891524126457 0.999017743037863 44.000000000000000
21.022209344960554 -26.705609409073528 0.897193040408409 51.000000000000000
20.969408000848791 -26.723235763287501 0.795867733951237 44.000000000000000
20.933413227472204 -26.762929150355539 0.692424745561357 43.000000000000000
20.987612608811499 -26.724079153349830 0.592488010250979 49.000000000000000
20.948834172762417 -26.760161620320162 0.489022793077637 43.000000000000000
21.003119861283391 -26.720739448744872 0.389120185507971 44.000000000000000
20.990862964083689 -26.741669613713025 0.184681910815637 47.000000000000000
20.946445621362795 -26.770417618097461 0.082441146990017 44.000000000000000
21.002013103367265 -26.733271820727150 -0.018727608465235 48.000000000000000
20.959672723529916 -26.764787059285215 -0.120358957538437 46.000000000000000
19.214954388196507 -24.507794010009416 -0.255622409939916 6.000000000000000
20.979059679691211 -26.716537986127751 -0.425597779669105 12.000000000000000
19.159028870429321 -24.494437581171383 -0.535615413328020 17.000000000000000
20.953984473185756 -26.660805710712609 -0.627447035484832 5.000000000000000
19.161801119332583 -24.477577326532455 -0.721363661481014 19.000000000000000
19.193539827242176 -24.470472435734262 -0.814314965238870 2.000000000000000
19.150507243154316 -24.494318123325321 -0.909378341400260 17.000000000000000
19.204963315388294 -24.464919331643948 -1.001888191988680 14.000000000000000
19.093539480760022 -24.399583976277800 -1.090094695637784 12.000000000000000
17.929117727919387 -22.847762274426863 -1.165682182140978 8.000000000000000
16.557225344207573 -21.067238008783960 -1.200720465123647 6.000000000000000
16.121112616548693 -20.561641593239742 -1.237046454611338 6.000000000000000
15.529904389746006 -19.847604439957802 -1.253024609172496 6.000000000000000
14.784397058802504 -18.846191095610500 -1.311614391998279 6.000000000000000
14.182552895905228 -18.139950217060161 -1.312948995340522 5.000000000000000
13.798418553588801 -17.556351452866821 -1.327138379144694 5.000000000000000
13.517837864599237 -17.243104672100102 -1.358811092991278 4.000000000000000
13.075356620102061 -16.712625418482354 -1.366553285249084 5.000000000000000
12.482464617629086 -15.911818641924894 -1.402411957282158 5.000000000000000
12.042970000420937 -15.398938774324026 -1.400405200424003 5.000000000000000
11.746165826939203 -14.939818929151469 -1.406781579752321 5.000000000000000
11.539733024760723 -14.715815209973124 -1.432734622023398 5.000000000000000
11.226748462920382 -14.347754202758527 -1.440588908565991 6.000000000000000
10.880466108080684 -13.875717813074639 -1.486037663211316 6.000000000000000
10.489620103131829 -13.357084803740422 -1.520021712393994 5.000000000000000
10.359749280339749 -13.229908803228962 -1.548846676865750 5.000000000000000
2.567886038798470 -3.273393174716013 -0.472077850534069 1.000000000000000
2.503734101539650 -3.200454534739119 -0.534404778225884 0.000000000000000
2.463527520649628 -3.135281063343633 -0.597912793352633 0.000000000000000
2.419998325526576 -3.093545482763702 -0.663403426794653 0.000000000000000
20.835661397972107 -26.819161322821728 1.097306568371520 51.000000000000000
20.886302001980354 -26.775160362945837 0.997878537173254 47.000000000000000
20.919184412735390 -26.768463592178577 0.895902883425345 50.000000000000000
20.873597364083412 -26.795460414961383 0.794717222723252 48.000000000000000
20.835069965330188 -26.831836272272550 0.691257703955530 44.000000000000000
20.889416626455290 -26.793160045863928 0.591333160011703 49.000000000000000
20.848121065181559 -26.825932049211040 0.487886987206821 44.000000000000000
20.900131765280257 -26.783523335581318 0.388022165255891 46.000000000000000
20.931989871549881 -26.775616537054372 0.285293934373474 49.000000000000000
20.892540523069503 -26.810779640446896 0.183568030562100 47.000000000000000
20.848043606788874 -26.839367606577099 0.081344187494094 44.000000000000000
20.898917793880585 -26.796029667801236 -0.019689598833965 46.000000000000000
20.858912182031467 -26.830596422551075 -0.121354041235029 44.000000000000000
20.917110207824724 -26.796282773857513 -0.223767165293108 47.000000000000000
20.849423322437982 -26.855880150692538 -0.325907097107906 47.000000000000000
20.794246308899790 -26.758844095049138 -0.525993813428143 6.000000000000000
19.104484980948694 -24.503106718012855 -0.627216388158944 21.000000000000000
19.110311280317063 -24.542886087377454 -0.815705675719009 2.000000000000000
19.965232134368357 -25.652777341079197 -1.070240738133125 7.000000000000000
19.032252175529862 -24.500359003607755 -1.093371183623500 11.000000000000000
17.882935787211927 -22.957203054595510 -1.170055357262280 9.000000000000000
17.135995945754715 -21.920412955320533 -1.180140100623420 5.000000000000000
16.490683770986166 -21.136846955698392 -1.202629119172671 6.000000000000000
16.085101465487334 -20.668034099864691 -1.242118054340773 5.000000000000000
15.470020487902246 -19.916852844644335 -1.255240776567774 6.000000000000000
14.718491754842885 -18.900061865918484 -1.312713821518787 5.000000000000000
13.741698375256172 -17.613175990498370 -1.328856702410945 5.000000000000000
13.483664794969760 -17.327718385211316 -1.363537890706595 4.000000000000000
13.035864189960026 -16.786134717695383 -1.370364709350803 5.000000000000000
12.433929430721635 -15.967242036900824 -1.404559491662549 5.000000000000000
11.708036375518612 -15.002278853501320 -1.410161419723798 5.000000000000000
11.518950272306522 -14.799968334005918 -1.438999392191112 4.000000000000000
11.193020432976816 -14.411647962176911 -1.444516405733603 5.000000000000000
10.855528430960252 -13.947968176100424 -1.491442724823232 5.000000000000000
10.636546258700784 -13.609685963792973 -1.500528449571380 6.000000000000000
10.461626273033454 -13.421584762112680 -1.524744087548578 5.000000000000000
10.336879053926905 -13.300376465025897 -1.554607297739536 5.000000000000000
9.442556292970819 -12.080018102361322 -1.656473902229685 10.000000000000000
7.442609342396991 -9.576666477257561 -1.672061511021473 6.000000000000000
2.458287461139498 -3.156236988692591 -0.601844015631622 0.000000000000000
20.803538302187654 -26.800180238378559 1.301288422493505 35.000000000000000
20.737198517180602 -26.887719196735809 1.096103204046252 53.000000000000000
20.783189895414615 -26.837511992761868 0.996574450217563 44.000000000000000
20.818380673435804 -26.834126352218000 0.894662653136096 50.000000000000000
20.772726042842866 -26.860957510602098 0.793505541985011 46.000000000000000
20.793396657520727 -26.865103644351308 0.590192194214039 48.000000000000000
20.744797184355750 -26.888134864765313 0.486759058340632 45.000000000000000
20.801773381979739 -26.852311466103775 0.386900947731513 45.000000000000000
20.833538282688266 -26.844516863342221 0.284168375504613 50.000000000000000
20.793987047519821 -26.879537248711518 0.182459051823369 48.000000000000000
20.744611110932738 -26.901560725850405 0.080351813609131 46.000000000000000
20.807668353937760 -26.874394767827170 -0.020954146263200 46.000000000000000
20.760344208303195 -26.899234313284566 -0.122417287146040 49.000000000000000
20.823491333324895 -26.871513234785155 -0.224988787629831 47.000000000000000
20.779891010406203 -26.851129971869931 -0.427568983170383 8.000000000000000
19.486370648696852 -25.215510872948496 -0.466265700155178 4.000000000000000
20.740835379146723 -26.776054035516751 -0.628538296074257 6.000000000000000
20.692565086953014 -26.799461464489834 -0.728837377054877 4.000000000000000
19.462582621135734 -25.245680704359820 -0.754501767072673 13.000000000000000
19.489470571389560 -25.232180092779135 -0.849445945718400 0.000000000000000
20.627099895273240 -26.638390613179801 -1.027320083670683 6.000000000000000
19.527678018748006 -25.261371502847737 -1.043782302908287 16.000000000000000
18.984849936375188 -24.620201493878916 -1.097865879212632 9.000000000000000
17.843386285732471 -23.076194958893222 -1.175109011949719 7.000000000000000
17.097568027809690 -22.033586911047109 -1.185131945024669 5.000000000000000
16.442977689243094 -21.231834765677664 -1.206537635565369 6.000000000000000
16.031838688059626 -20.752042950879790 -1.245356397881323 5.000000000000000
15.424119558016917 -20.005149440870284 -1.259098267992942 6.000000000000000
14.659529532832805 -18.963291784530281 -1.314702406990316 5.000000000000000
14.147571058077590 -18.230114281621731 -1.317743241886303 6.000000000000000
13.684744106667281 -17.669818468053435 -1.330572742730201 5.000000000000000
13.425341516595530 -17.380274159492004 -1.364940448086957 4.000000000000000
12.744401746107068 -16.451122992891428 -1.393509115150608 5.000000000000000
12.387522461336291 -16.025749910592200 -1.407073203651392 5.000000000000000
11.996066236181367 -15.452877132259328 -1.402583182671678 5.000000000000000
11.662520380780798 -15.055059907107193 -1.412367374859205 5.000000000000000
11.457640243386905 -14.829655499404090 -1.438421541980565 5.000000000000000
11.149570206909447 -14.462653625602101 -1.446785120375181 6.000000000000000
10.989024892621154 -14.185775139788287 -1.465489138043958 5.000000000000000
10.600535317955968 -13.665132007183750 -1.503806839257671 6.000000000000000
10.440346856109002 -13.495677519723868 -1.530849496166438 5.000000000000000
10.301926781093821 -13.354813535712136 -1.558006608327681 5.000000000000000
2.601890946808946 -3.357753773017489 -0.491012261176932 3.000000000000000
2.496234013587671 -3.218294872300305 -0.537191337877160 0.000000000000000
2.467252557391242 -3.200322826691846 -0.612423070414826 0.000000000000000
2.420935362405120 -3.124186678286520 -0.670634602402055 0.000000000000000
20.709906420814590 -26.875017523814826 1.300240907451183 36.000000000000000
20.633726660512043 -26.949511941973448 1.094769009365316 56.000000000000000
20.687083540563208 -26.909086361398067 0.995444797008985 46.000000000000000
20.724561442592250 -26.909026207241372 0.893560909643110 51.000000000000000
20.678824156555162 -26.935698808904888 0.792397156354749 48.000000000000000
20.734096303276189 -26.897181951105811 0.690074762119996 44.000000000000000
20.694728740360052 -26.933508888643409 0.589046685688282 50.000000000000000
20.646070979736180 -26.956366890448365 0.485630801898308 44.000000000000000
20.703184582834780 -26.920746452940424 0.385784659596771 45.000000000000000
20.732456470405445 -26.909862727387818 0.283074107716905 49.000000000000000
20.695202539579078 -26.947942438046901 0.181354915035161 47.000000000000000
20.706539578093992 -26.939645972785794 -0.021967898670957 50.000000000000000
20.661545823019345 -26.967519059412236 -0.123475722795976 44.000000000000000
19.384238045009528 -25.289117908937353 -0.276450217813663 9.000000000000000
20.745871487244099 -26.918082008309277 -0.326764086605495 51.000000000000000
19.448592031373703 -25.269879521435591 -0.372529259274670 5.000000000000000
19.386230822227791 -25.269740894736763 -0.466850607073005 1.000000000000000
19.449724226029083 -25.250162316858347 -0.563544493579309 9.000000000000000
19.399001682993358 -25.265458132159758 -0.657706548611851 13.000000000000000
19.396373097827119 -25.296038833276267 -0.850351590423576 11.000000000000000
19.454920530566660 -25.269115828143590 -0.947593387862431 11.000000000000000
18.465871913806691 -24.005978727101873 -1.147247557662762 5.000000000000000
17.018017242644447 -22.092321592478587 -1.186073031275763 5.000000000000000
16.390045577940526 -21.320336768150892 -1.209944696074902 5.000000000000000
15.980554308790570 -20.839147957264416 -1.248855642163101 6.000000000000000
15.070923024136793 -19.596182844214255 -1.295173938010232 6.000000000000000
14.616892921783469 -19.048824450683558 -1.318771743940501 6.000000000000000
14.095529818095535 -18.297815488019346 -1.320375243202432 5.000000000000000
13.644116839101194 -17.748761093436638 -1.334533279498855 5.000000000000000
13.383334745918722 -17.455126795250585 -1.368668494406223 5.000000000000000
12.984179564975287 -16.843548831977895 -1.372453569159240 5.000000000000000
12.686803391846539 -16.497897305911703 -1.394558654261987 5.000000000000000
11.951284547200949 -15.509885517248630 -1.405138605674795 5.000000000000000
11.628530378995297 -15.123775253838211 -1.416527662336096 5.000000000000000
11.410334403123530 -14.878391842699191 -1.440256543508444 4.000000000000000
10.955750075505780 -14.248925129030214 -1.469494032728837 6.000000000000000
10.575968978120367 -13.736568430511696 -1.509330264671897 6.000000000000000
10.404653649183999 -13.550510651302499 -1.534188804590769 5.000000000000000
10.271376722091890 -13.415609779124049 -1.562350111627487 5.000000000000000
9.429717145768373 -12.249895407548527 -1.675385407504407 8.000000000000000
2.500961348105530 -3.256028084713964 -0.545281249392644 0.000000000000000
2.423708793101683 -3.158176449393306 -0.678881182366485 0.000000000000000
20.606450555620839 -26.936711903324898 1.298831225352765 38.000000000000000
20.585952866117726 -26.973883397101734 0.994207355437339 48.000000000000000
20.625694135886654 -26.977184544033921 0.892374819678103 55.000000000000000
20.577503567700994 -27.000473144476022 0.791195281491067 49.000000000000000
20.630526789334329 -26.958958046126764 0.688876153109912 44.000000000000000
20.593446554195037 -26.998348089913907 0.587896987178370 47.000000000000000
20.547115596654283 -27.024244322012457 0.484507530595284 45.000000000000000
20.601980009187947 -26.985598719803505 0.384687875505394 49.000000000000000
20.633554178566289 -26.978047848141866 0.281958363994108 50.000000000000000
20.593806184728241 -27.012774182727192 0.180293911848652 45.000000000000000
20.645771415421660 -26.969789069113855 0.079264889585675 43.000000000000000
20.605204774539612 -27.004527225780894 -0.022976489246220 46.000000000000000
20.564899306038829 -27.038665310693144 -0.124602907346865 47.000000000000000
20.584609512032085 -26.990692222031161 -0.429738222668880 16.000000000000000
19.167074251642344 -25.162858059901751 -0.461390545593819 2.000000000000000
20.550917174110765 -26.921773301884564 -0.630933212195808 8.000000000000000
20.483483437443528 -26.919147197624469 -0.730078499346643 11.000000000000000
20.540764298856153 -26.884128627057379 -0.832106127387466 5.000000000000000
20.407052778821008 -26.741591839705144 -1.027423670509161 9.000000000000000
19.219946027353046 -25.225215307557889 -1.035763119827434 3.000000000000000
18.934453545467818 -24.736812703159650 -1.102157506851674 9.000000000000000
18.400920195534106 -24.098361926499948 -1.150190049803074 7.000000000000000
16.976231180348424 -22.202154534326386 -1.190825603123593 6.000000000000000
16.334320613406867 -21.405530260092767 -1.213100286437791 6.000000000000000
15.907582926329109 -20.897207502905868 -1.249993600785152 5.000000000000000
15.368308577397411 -20.080532839639666 -1.261859020393600 7.000000000000000
15.004703575126953 -19.654277827317053 -1.296566378069191 6.000000000000000
14.036104295991779 -18.355731260191817 -1.322078401607741 6.000000000000000
13.591327252399283 -17.811555545943559 -1.336887894166743 5.000000000000000
13.336264629777341 -17.523465673525699 -1.371730445714892 4.000000000000000
12.941668544630051 -16.913673556153828 -1.375918681942973 5.000000000000000
12.626678049557587 -16.541269224548664 -1.395249652438104 5.000000000000000
11.903900225140442 -15.563568283741601 -1.407313365433474 5.000000000000000
11.582496307119973 -15.176343926948725 -1.418731095320151 6.000000000000000
11.362823080935938 -14.926986818147689 -1.442089709472630 4.000000000000000
11.110575461120971 -14.519966790803448 -1.449881759142501 6.000000000000000
10.926833793794394 -14.318462039770480 -1.474350488840890 5.000000000000000
10.548697143315669 -13.804788489240863 -1.514404836700935 6.000000000000000
10.373349649284293 -13.611711534088316 -1.538449847085940 5.000000000000000
9.405208615304836 -12.310855448996548 -1.680779141902605 8.000000000000000
2.503407941309756 -3.290518893611136 -0.552488523828852 0.000000000000000
2.465758427439422 -3.227968051266146 -0.618255125008902 0.000000000000000
2.420222294226430 -3.182323890310631 -0.684085216831287 0.000000000000000
20.505188774091721 -27.001236171328777 1.297518283985108 36.000000000000000
20.534826723907727 -27.017347444074744 1.093575529694507 53.000000000000000
20.486992163001446 -27.041548582380276 0.993031135479195 47.000000000000000
20.524224993502024 -27.041772301908058 0.891149473941166 50.000000000000000
20.478349020439804 -27.068106354763550 0.790031058246831 44.000000000000000
20.531528248529760 -27.026781248636322 0.687724071551750 47.000000000000000
20.496705596017332 -27.069258281093731 0.586770253552708 49.000000000000000
20.502943821597498 -27.053317562166491 0.383581290517476 50.000000000000000
20.534423539454910 -27.045880338543416 0.280847620169165 47.000000000000000
20.492204229309340 -27.077241352950004 0.179237984697801 48.000000000000000
20.549080885090930 -27.040881274883020 0.078132660927505 45.000000000000000
20.506037326265748 -27.072257318422309 -0.024041900435205 48.000000000000000
20.463264413031862 -27.103018451024770 -0.125577903137470 47.000000000000000
19.076924884593549 -25.251268587151998 -0.273422606489646 6.000000000000000
20.557220288673076 -27.067058702676302 -0.329239598316446 48.000000000000000
19.155331866603341 -25.252070373671078 -0.369532566479957 2.000000000000000
19.076671101071742 -25.228799074252692 -0.462441802404477 6.000000000000000
19.156597757773156 -25.232466456623047 -0.559425875789272 5.000000000000000
19.087089344529492 -25.221490591604940 -0.651871066047158 18.000000000000000
19.152869465959480 -25.205651281951820 -0.748170975717746 10.000000000000000
19.088995011799923 -25.258392168683372 -0.843579553624390 19.000000000000000
19.147430927308100 -25.232159547020832 -0.940189635582956 5.000000000000000
19.157673859053528 -25.329980426468680 -1.039118032421131 16.000000000000000
18.914296135265758 -24.895173214821433 -1.109094622600179 12.000000000000000
18.368672256693802 -24.235632810238222 -1.156143570525260 4.000000000000000
16.919708495311145 -22.292649440677074 -1.194146973070026 6.000000000000000
16.292338043587630 -21.509935716936820 -1.217758700205580 5.000000000000000
15.843803326270839 -20.967919317894427 -1.252177794837261 6.000000000000000
15.309794760980868 -20.152558792119102 -1.264344016915419 7.000000000000000
14.973553446524864 -19.760496328532174 -1.302241546214708 5.000000000000000
13.985834499314754 -18.426364143972766 -1.325015985071787 6.000000000000000
13.542946524650860 -17.880657531905346 -1.339883156187570 5.000000000000000
13.281860196836485 -17.582011794013148 -1.373792719220293 3.000000000000000
12.894132082359617 -16.977261351337340 -1.378693580518166 5.000000000000000
12.599145274441932 -16.629585159742305 -1.400923330695789 5.000000000000000
11.860948961859197 -15.623570984619487 -1.410245378506990 5.000000000000000
11.538560694171727 -15.232012167879731 -1.421324350167363 6.000000000000000
11.322077342614085 -14.985113401664194 -1.445129788447869 4.000000000000000
11.068982443821010 -14.573974458000414 -1.452562602101776 6.000000000000000
10.888263279177723 -14.375069008554966 -1.477502477844276 5.000000000000000
10.525710170250351 -13.879449934522569 -1.520378389263388 5.000000000000000
10.339425441107132 -13.669637626092255 -1.542249150220800 5.000000000000000
10.242841416024952 -13.479568964309081 -1.567165820358395 5.000000000000000
9.357345972005657 -12.339574226658101 -1.680751679718793 7.000000000000000
2.809481934944721 -3.721430200224791 -0.578606447330203 3.000000000000000
2.460047851774697 -3.249016620524348 -0.622188136681285 0.000000000000000
20.413181687025293 -27.078288826045057 1.296575856594459 38.000000000000000
20.438068183770273 -27.088045968532445 1.092454688651018 52.000000000000000
20.392530241636024 -27.115313597892076 0.991971561586764 47.000000000000000
20.417821001626521 -27.099527072083553 0.889841105096155 51.000000000000000
20.381326612822377 -27.138614645605099 0.788903975960931 43.000000000000000
20.437034134802918 -27.100700107887942 0.686617893939855 45.000000000000000
20.394990897375926 -27.133372723018475 0.585630621704800 50.000000000000000
20.443194700358895 -27.085312617412601 0.483395141506668 46.000000000000000
20.403681978286940 -27.120683561373703 0.382479684681902 49.000000000000000
20.439794093483496 -27.119800839069931 0.279688245178333 48.000000000000000
20.390398935587527 -27.141338358866030 0.178187258198216 49.000000000000000
20.447406789383638 -27.105185171460160 0.077105518270080 45.000000000000000
20.409003962387043 -27.142860524876760 -0.025164503555024 49.000000000000000
20.420276898776702 -27.133736475494526 -0.228888521763751 50.000000000000000
19.048077980570710 -25.295373007811030 -0.369821496061938 4.000000000000000
19.464075738714410 -25.950332015303545 -0.488062636609627 0.000000000000000
19.042352945938550 -25.266109787201312 -0.559145168744090 0.000000000000000
20.285500512147429 -27.053389918786667 -0.732020659174658 11.000000000000000
20.345414158746269 -27.022014407928509 -0.834180608808308 5.000000000000000
19.035506536983927 -25.269001172984510 -0.939622311921540 0.000000000000000
19.568011359851841 -26.083545383610005 -1.081034661045378 12.000000000000000
18.841336179089957 -24.982793472370609 -1.111555069007502 6.000000000000000
18.298001933048329 -24.321371941769733 -1.158653635700561 5.000000000000000
16.883911087174116 -22.412084884989724 -1.199615647083830 5.000000000000000
16.216980178206274 -21.569092974273424 -1.218905732110043 5.000000000000000
15.814828539361994 -21.086943656984719 -1.258297441507578 5.000000000000000
15.281469139068761 -20.266379580419368 -1.270392799536466 7.000000000000000
14.925445392287264 -19.844132897028999 -1.305916902284001 6.000000000000000
13.930563081699487 -18.490416271584103 -1.327333553362750 7.000000000000000
13.494243530821597 -17.949647669927110 -1.342877167974893 5.000000000000000
13.215570430874740 -17.624199417697771 -1.374188088192199 6.000000000000000
12.843971793342881 -17.037509137775924 -1.381122316286393 5.000000000000000
12.540883773995766 -16.675884270118029 -1.401966621858942 5.000000000000000
11.815395921603566 -15.680237514764769 -1.412796616021081 6.000000000000000
11.494372106279844 -15.287567482789338 -1.423916207818452 5.000000000000000
11.271808998128618 -15.030209396552809 -1.446556568819193 4.000000000000000
11.024823168634470 -14.624645011523775 -1.454827236679755 6.000000000000000
10.860989366418128 -14.447767736104552 -1.482784802742910 5.000000000000000
10.495401313398695 -13.944419116250966 -1.525003967274811 6.000000000000000
10.319032556325794 -13.746910658242697 -1.548816907457355 5.000000000000000
10.218595449574925 -13.549985358866442 -1.572927142849060 5.000000000000000
9.295638199649428 -12.348720921669042 -1.677468180921990 6.000000000000000
2.497512139943287 -3.311751811953457 -0.556160568930195 0.000000000000000
2.460251029563690 -3.280044724934385 -0.628971381461212 0.000000000000000
2.414586137272277 -3.203184034619103 -0.688275041139530 0.000000000000000
20.316174353437525 -27.148570696600039 1.295455360059303 37.000000000000000
20.338704534520868 -27.155181498328005 1.091270915269043 54.000000000000000
20.293096324432078 -27.182287001970465 0.990804881168372 44.000000000000000
20.320671710972238 -27.169825541217204 0.888714176741206 52.000000000000000
20.281707526014852 -27.205545918900427 0.787749325118415 43.000000000000000
20.339916256167715 -27.171064441101795 0.685495882261787 45.000000000000000
20.297775256423279 -27.203581102282598 0.584513452209173 46.000000000000000
20.343808877661687 -27.152465802044233 0.482281888245305 46.000000000000000
20.301843045643071 -27.184459726545420 0.381397956961283 50.000000000000000
20.337835686233117 -27.183704862196272 0.278613873457335 48.000000000000000
20.286041116355015 -27.201824765215438 0.177180298577403 48.000000000000000
20.350239524367439 -27.175583844605978 0.075982775574340 44.000000000000000
20.304670443303898 -27.203406937622017 -0.026095839353506 50.000000000000000
20.368498434399903 -27.176703352935679 -0.126769421205650 45.000000000000000
20.320710596450972 -27.200804228490284 -0.229915282348956 47.000000000000000
20.355714040122642 -27.198574207112316 -0.331210153266498 49.000000000000000
19.440957936561649 -26.027559540115643 -0.393407182651472 0.000000000000000
19.403724775591403 -26.062653063189927 -0.490828223393668 21.000000000000000
19.445104463405801 -26.010776918082762 -0.588126791841798 0.000000000000000
19.391159806143992 -26.022586729255202 -0.683914204513197 10.000000000000000
19.528969057708274 -26.103082619244500 -0.787367451584214 36.000000000000000
20.259030092385771 -27.055788233934415 -0.934766823119357 9.000000000000000
19.465805190353976 -26.052372510839877 -0.980677605089229 5.000000000000000
19.408762833386003 -26.060251374295561 -1.076733870806803 10.000000000000000
18.763292050120977 -25.063744445485746 -1.113605442771843 9.000000000000000
18.177731368914831 -24.339003102380371 -1.156636566279858 6.000000000000000
16.805371015521622 -22.473307093421713 -1.200786158926547 6.000000000000000
16.148405081042711 -21.637709993750079 -1.220802189146712 6.000000000000000
15.740951894035861 -21.144428080941335 -1.259428239903298 6.000000000000000
15.208154652945838 -20.318785447815454 -1.271229077002358 7.000000000000000
14.858287011642414 -19.901774468662442 -1.307303707936743 5.000000000000000
13.877334659046928 -18.557555163248054 -1.329958712121579 6.000000000000000
13.452180063106248 -18.028250580465702 -1.346834329359612 5.000000000000000
12.800507315119502 -17.107338525730693 -1.384584134881373 5.000000000000000
12.500978539732197 -16.747919662399283 -1.405858198619265 5.000000000000000
11.767275614785431 -15.733542149117582 -1.414966710473256 6.000000000000000
11.454542854149853 -15.349479216521555 -1.427290025159168 6.000000000000000
11.244368307313342 -15.107616268719561 -1.452013402004761 5.000000000000000
10.985054130793840 -14.681675233282178 -1.457920489376792 6.000000000000000
10.821826982654068 -14.504241038543110 -1.485935476395934 5.000000000000000
10.457872167576509 -13.999622225718952 -1.528280414828833 6.000000000000000
10.282182015496828 -13.801512756910228 -1.552154137633170 5.000000000000000
10.184789339052266 -13.607442625407407 -1.576797275187808 5.000000000000000
9.245381878698083 -12.373799642497730 -1.676892730897612 6.000000000000000
2.499572179429491 -3.346344188001705 -0.563369661113643 0.000000000000000
6.567895472118947 -8.768225695362847 -1.644839274626645 6.000000000000000
2.410821574020805 -3.227350063935287 -0.693479806102560 0.000000000000000
20.216577024137152 -27.215272702988837 1.294248031823296 35.000000000000000
20.248495466719792 -27.234921856764423 1.090361607893732 53.000000000000000
20.198116964625477 -27.255391463464537 0.989754325680399 29.000000000000000
20.234980720404167 -27.255996484199677 0.887810982478346 50.000000000000000
20.186539728309299 -27.278613690698510 0.786663877811873 41.000000000000000
20.237861852748114 -27.234604942188192 0.684337836033447 47.000000000000000
20.200311244719071 -27.273457371901547 0.583400761118735 46.000000000000000
20.253579756376265 -27.232222266853221 0.481159994638395 45.000000000000000
20.220869852331077 -27.277052727613562 0.380185690901147 36.000000000000000
20.240358029584787 -27.253720833114535 0.277490665472353 47.000000000000000
20.195528768683765 -27.281396744654728 0.175946208532386 36.000000000000000
20.248137465953477 -27.239160592924364 0.074965702893625 43.000000000000000
20.214193703097433 -27.283039369100425 -0.027395797474475 34.000000000000000
20.259387135207788 -27.230628919932649 -0.127512613534296 46.000000000000000
20.230286206473718 -27.280486319185961 -0.231280959227602 27.000000000000000
19.361221206682011 -26.027226054004000 -0.294948447408184 6.000000000000000
19.338159099539780 -26.081473172433210 -0.394040075280942 15.000000000000000
19.337717974672728 -26.058228722649513 -0.588393326259657 4.000000000000000
20.160822079712201 -27.174717166414574 -0.837019739658374 8.000000000000000
19.382376335416975 -26.046930021437589 -0.879844874402351 18.000000000000000
19.407279407229861 -26.167978773576014 -0.984455155589770 0.000000000000000
19.443400541734732 -26.305473292838645 -1.088366696376292 16.000000000000000
18.698932122388857 -25.163909977435562 -1.116876248227634 9.000000000000000
18.101873720722960 -24.417705128698326 -1.158707997019427 9.000000000000000
16.752213329854200 -22.569945252197648 -1.204581814646083 6.000000000000000
16.119035952638562 -21.761311099290388 -1.226964429988957 4.000000000000000
15.167194232205116 -20.416349499550630 -1.275905515445728 7.000000000000000
14.825690183477015 -20.007896240759734 -1.312978918322281 6.000000000000000
13.837689569387763 -18.644042689534356 -1.334439685913359 5.000000000000000
13.402799057695947 -18.097017300082744 -1.349825974536377 5.000000000000000
13.179244039077588 -17.708345757344709 -1.378910367006828 4.000000000000000
12.749775096069868 -17.167339293169647 -1.387009902399850 5.000000000000000
12.446886562778314 -16.800390993176272 -1.407610218562270 5.000000000000000
11.725821106992258 -15.796462716014776 -1.418274598216530 6.000000000000000
11.405236169251383 -15.398315645420400 -1.429095751452517 6.000000000000000
10.956493650659493 -14.754860925847927 -1.463088750828180 5.000000000000000
10.798428244559338 -14.583368261567632 -1.492070653511021 5.000000000000000
10.665814350193658 -14.336022661538852 -1.517741356549005 6.000000000000000
10.433790584990822 -14.074235216454749 -1.534254619673588 5.000000000000000
10.148414955542064 -13.661589599138512 -1.580193861721453 5.000000000000000
9.201867325868822 -12.408433786929439 -1.677942124204630 6.000000000000000
2.507437553360250 -3.391014239620748 -0.573232942077156 0.000000000000000
2.456260770674166 -3.304441886900914 -0.633855325185056 0.000000000000000
2.406911989482554 -3.251556638608061 -0.698685154702281 1.000000000000000
20.102770800111550 -27.262104389813906 1.292500336347250 16.000000000000000
20.153306152735020 -27.307875199430644 1.089321599908036 40.000000000000000
20.142461537711657 -27.383448776676655 0.989653482453071 21.000000000000000
20.123301994313948 -27.306149663043843 0.886430586898393 31.000000000000000
20.046919773272901 -27.289522683057434 0.784975352134497 22.000000000000000
20.140271543374730 -27.304253079631348 0.683225342067568 28.000000000000000
20.070017584450110 -27.297451006944947 0.582175509015667 23.000000000000000
20.160702257978759 -27.308440469468344 0.480045471159459 27.000000000000000
20.071932636904048 -27.275127311330944 0.379416884259152 29.000000000000000
20.100682021327259 -27.264882264139850 0.276859973160680 31.000000000000000
20.051205920369522 -27.285836181004502 0.175610432218842 25.000000000000000
20.129507532728368 -27.279602695584877 0.074308242293504 26.000000000000000
20.062879229117428 -27.277820016586315 -0.027067756997006 30.000000000000000
