# This PCD file was generated using the MATLAB® pcwrite function
# from Computer Vision Toolbox®.
# .PCD v.7 - Point Cloud Data file format
VERSION .7
FIELDS x y z intensity
SIZE 8 8 8 8
TYPE F F F F
COUNT 1 1 1 1
WIDTH 645
HEIGHT 1
VIEWPOINT 0 0 0 1 0 0 0
POINTS 645
DATA ascii
7.024077527721239 20.493110759720302 -1.414946831957204 11.000000000000000
6.273884772333567 18.361307433434206 -1.544811431858142 42.000000000000000
5.461790973576825 15.880328101219114 -1.550443501098214 7.000000000000000
4.329626634918512 12.694929438958404 -1.546113158714783 8.000000000000000
3.991994420172887 11.623886994098285 -1.612303803725522 27.000000000000000
3.368104244648116 9.786505069505935 -1.613631359067048 8.000000000000000
3.110716224540852 9.078120655541269 -1.612312048787888 8.000000000000000
2.263218093121061 6.613509561828543 -1.618734094189029 75.000000000000000
9.743392781424369 28.141947069737604 1.650648466367004 2.000000000000000
9.714855004740791 28.071012520957318 1.129560196093252 8.000000000000000
9.741779833595054 28.178654721057065 0.959761613367211 7.000000000000000
9.550072791586409 27.496699766217255 0.864302469856314 9.000000000000000
9.632331406542043 27.896348284191838 0.784686245150513 9.000000000000000
9.498509804279202 27.379811466466485 0.694386294596521 16.000000000000000
9.703199608801221 28.047952853434914 0.612763723141328 7.000000000000000
9.614193460665312 27.659549260837302 0.525721135852541 9.000000000000000
9.548814770092640 27.639293895476349 0.441843188704716 10.000000000000000
9.536863429584791 27.469330625604222 0.356637436673464 11.000000000000000
9.679604381713084 28.041146116477883 0.268879668389068 8.000000000000000
9.500287737578809 27.394870518466639 0.188994437861743 12.000000000000000
9.714964770708427 28.091973760114648 0.095417352113371 10.000000000000000
9.573603003465770 27.554949193618789 0.016843197190640 9.000000000000000
9.568941607068943 27.706755773400438 -0.069756786297643 7.000000000000000
9.518098514401736 27.425765719564431 -0.149156661186438 12.000000000000000
9.652300118611741 27.973550928812749 -0.246634451769401 8.000000000000000
9.499085582817465 27.401486300437320 -0.316863330784429 11.000000000000000
9.690613569900712 28.032857976785458 -0.419798943109506 8.000000000000000
9.558083229988704 27.521003068186324 -0.489978063863554 9.000000000000000
9.526485320419404 27.595893739668533 -0.575562967076572 8.000000000000000
9.517599066267188 27.434296745277770 -0.654941954407943 13.000000000000000
9.639215952391872 27.946550883456787 -0.759883434314047 7.000000000000000
9.463114599384632 27.309090144646483 -0.817557546624308 8.000000000000000
9.724233980303659 28.138559348960975 -0.941986336753632 10.000000000000000
9.505179875572374 27.380372615073888 -0.989173376985983 14.000000000000000
9.510257627876037 27.559647010120280 -1.081228424012628 11.000000000000000
9.455752529506363 27.268525045124299 -1.150445601594634 16.000000000000000
9.370985859926172 27.191085072625462 -1.225598890783326 24.000000000000000
9.221274880605655 26.632621126155705 -1.274770529237533 19.000000000000000
8.843049117915804 25.641036097906472 -1.281655003784145 9.000000000000000
8.365651380308186 24.045963220349044 -1.318570347330944 11.000000000000000
8.083042657689738 23.386261208387516 -1.339455705854586 9.000000000000000
7.929388060935331 22.838439621004817 -1.364197802063414 12.000000000000000
7.465277711433593 21.495597230937399 -1.382651823357528 10.000000000000000
7.164693522425800 20.770961477040224 -1.381245685007094 10.000000000000000
7.084304182268532 20.442690207410500 -1.412914241494392 11.000000000000000
6.349300227576641 18.377272443983529 -1.549564865867922 51.000000000000000
5.517956883791754 15.869127514903369 -1.551828903233431 7.000000000000000
4.376025985891964 12.691376601556328 -1.548297180048084 8.000000000000000
4.030667289101530 11.610345764033539 -1.612584131341686 27.000000000000000
3.399036008157218 9.771486414379346 -1.613028750973934 7.000000000000000
3.137850529388480 9.060356202545961 -1.610722550958184 8.000000000000000
2.277806221132671 6.588208633509872 -1.612705186651937 39.000000000000000
9.584883708148574 27.392906738088534 1.620422722417989 4.000000000000000
9.569431104379795 27.359333799449139 1.113627321451935 11.000000000000000
9.562208384018199 27.368717177519635 0.946450638726017 14.000000000000000
9.537840701660819 27.166162318357344 0.859718233513596 4.000000000000000
9.548478964815523 27.358004726077631 0.778932552003506 17.000000000000000
9.490051980275162 27.060704611185848 0.691741754727826 3.000000000000000
9.569763296439952 27.370052170401202 0.609674097632033 16.000000000000000
9.603710896174626 27.332577469449596 0.524872591553577 12.000000000000000
9.545551948501490 27.331189467103364 0.441856910368949 9.000000000000000
9.521845130774018 27.131272026866320 0.357694623509653 3.000000000000000
9.556149753028983 27.389522884930877 0.273597334878502 16.000000000000000
9.474426832811851 27.026779001535864 0.192313597595325 2.000000000000000
9.573705740836466 27.391453566632229 0.104759594586602 15.000000000000000
9.580279683795801 27.277105714491348 0.020631746931515 8.000000000000000
9.547192577960139 27.345863505972126 -0.063448009351990 10.000000000000000
9.500273796063105 27.080302199120602 -0.142180738414517 3.000000000000000
9.554121825381635 27.393783976606180 -0.232278655015579 13.000000000000000
9.470615970007181 27.025969058421914 -0.307013891597068 3.000000000000000
9.577427327530039 27.411767199232081 -0.400626130762602 13.000000000000000
9.566027126641877 27.247078205553173 -0.481732682440727 5.000000000000000
9.529835875725531 27.306868056759775 -0.565974834119424 7.000000000000000
9.487785171481086 27.055117788270131 -0.640640104490827 3.000000000000000
9.551782950540094 27.397270149630394 -0.736702852342388 13.000000000000000
9.419663327917824 26.892508522136374 -0.799232064549517 3.000000000000000
9.591529147865323 27.461282249933696 -0.908836056879645 11.000000000000000
9.526138379968053 27.144423293533457 -0.978510454306857 7.000000000000000
9.512221663650557 27.267111596318422 -1.066628444874980 11.000000000000000
9.375841728528705 26.910372942987344 -1.210121726905960 24.000000000000000
9.171604120109926 26.205961514413580 -1.248476827528631 29.000000000000000
8.907767444218685 25.546601785701391 -1.277718408275616 10.000000000000000
8.633805797431272 24.655411797406565 -1.292958218336370 11.000000000000000
8.176081926138643 23.395971449856596 -1.343063750047548 10.000000000000000
8.013858036563853 22.829903596327732 -1.366335619766544 12.000000000000000
7.531546483931244 21.451159471060642 -1.381483586136126 11.000000000000000
7.240553507271606 20.761341068865711 -1.383150461969748 10.000000000000000
7.144262148921122 20.392092861734419 -1.410883973044967 10.000000000000000
6.431609960765307 18.411645010848567 -1.556478738691847 50.000000000000000
5.575463111829336 15.861440575771113 -1.553717475980253 6.000000000000000
4.419762397101529 12.680206507496791 -1.549230988024430 8.000000000000000
4.073347225493336 11.607775025756197 -1.614983025454779 26.000000000000000
3.429901032029797 9.756364820996453 -1.612427641545321 8.000000000000000
3.164895976642612 9.042506721138281 -1.609134235651169 8.000000000000000
2.297605401758403 6.577119410845789 -1.611625812268082 37.000000000000000
9.558052448097165 27.025131308914958 1.605921866638495 0.000000000000000
9.527529510557606 26.950028189941328 1.104493844637177 2.000000000000000
9.519170334096877 26.955569703411392 0.939597081582698 2.000000000000000
9.497598527436800 26.764579998060050 0.854205799870719 3.000000000000000
9.523154292507321 26.993756869287289 0.774934433993572 2.000000000000000
9.472699498001241 26.723173112207611 0.688978060331789 3.000000000000000
9.544823498300381 26.878114760891584 0.523962279604813 2.000000000000000
9.484798508240793 26.869102556407007 0.442270659861969 2.000000000000000
9.497788878457918 26.774851433078560 0.358869380386528 3.000000000000000
9.517434805510099 26.987579956484161 0.276158627777262 3.000000000000000
9.467821357084439 26.719400927803115 0.194924604997409 3.000000000000000
9.542760953178096 27.012157840137043 0.109308099861266 3.000000000000000
9.537556110165973 26.867901997865182 0.026833926715061 2.000000000000000
9.483839071779762 26.876308068464944 -0.054796294457503 3.000000000000000
9.491012596331124 26.765398421003873 -0.135932515656047 3.000000000000000
9.504676182592711 26.961830946676805 -0.221950293684187 3.000000000000000
9.455913445260656 26.696118739865817 -0.298541433122127 3.000000000000000
9.547968444954897 27.036344406527725 -0.389707354929356 3.000000000000000
9.517843943089893 26.823040208450600 -0.467902340460572 3.000000000000000
9.477255933372241 26.867671504954778 -0.550338267064918 3.000000000000000
9.474429612322901 26.729123749980566 -0.628606467266866 3.000000000000000
9.515943554547427 27.003167426785730 -0.720648062905783 3.000000000000000
9.409992124644681 26.578056439651540 -0.785924482460424 3.000000000000000
9.602884667833770 27.198826970236446 -0.897433118645726 6.000000000000000
9.464154662088653 26.683238606837286 -0.955244994314398 6.000000000000000
9.500120116721085 26.941062383459361 -1.050027345966484 7.000000000000000
9.287012187629692 26.218730569062878 -1.090647444532499 16.000000000000000
9.237409209245804 26.235324247735882 -1.168940799063412 21.000000000000000
9.182643880281113 25.956484370326073 -1.234236993821503 28.000000000000000
9.001624393670092 25.534651538624395 -1.279683544937721 11.000000000000000
8.716472942478696 24.621888686032115 -1.293284496868476 8.000000000000000
8.255751169025451 23.367803265029515 -1.343642352744847 8.000000000000000
8.090212964664822 22.798554691585061 -1.366589200952767 13.000000000000000
7.615278744995173 21.455216800818924 -1.384716376175593 11.000000000000000
7.312372030488113 20.740193710450249 -1.384009077177044 10.000000000000000
7.205313210182474 20.345052008564330 -1.409217259782523 9.000000000000000
6.507460102760000 18.426954026713624 -1.561242665722321 44.000000000000000
5.632976083578050 15.853551858288625 -1.555609640238790 7.000000000000000
4.460752391414182 12.661472014044577 -1.548914355323465 7.000000000000000
4.113323428022603 11.597655732432159 -1.615973391725461 26.000000000000000
3.460698974146048 9.741140566558457 -1.611828025729027 8.000000000000000
3.197303893647138 9.039174331468075 -1.611162327572465 8.000000000000000
2.320057732945514 6.573076137700809 -1.613022218351417 37.000000000000000
9.545181023249590 26.702943013751003 1.593296504767609 0.000000000000000
9.514346526155499 26.627778382011265 1.097318790422664 3.000000000000000
9.519819402719243 26.670845776424777 0.934835027782130 2.000000000000000
9.486224995287166 26.450018995641052 0.849840495690063 3.000000000000000
9.499499905902958 26.641295131986233 0.771061182300558 2.000000000000000
9.465440800394482 26.419909950559493 0.686456217330216 3.000000000000000
9.528396649799554 26.675906249392888 0.606008156829944 2.000000000000000
9.529573665562829 26.552127975131931 0.523136829077037 3.000000000000000
9.476943103642931 26.561899779684531 0.442306623990846 3.000000000000000
9.486450336052989 26.460257748180787 0.359818319934247 3.000000000000000
9.516955687640070 26.699040566065754 0.277738855549104 3.000000000000000
9.453709903205628 26.397362496756521 0.197725351821484 3.000000000000000
9.524325665753828 26.674754419709267 0.113244084632604 3.000000000000000
9.515430795117261 26.523186137144528 0.031879951013375 3.000000000000000
9.478763120091820 26.576667126668632 -0.049748949713660 3.000000000000000
9.483784400934901 26.462155157338437 -0.129951841551754 3.000000000000000
9.490506254391981 26.635808978425011 -0.214516910493551 3.000000000000000
9.441765208953946 26.374209893786080 -0.290290331722092 3.000000000000000
9.518742629633131 26.668972086867718 -0.379031141092933 3.000000000000000
9.505223910504661 26.504805761390621 -0.457964133139467 3.000000000000000
9.464019583812508 26.545632718633222 -0.539369936698978 3.000000000000000
9.456179464104544 26.396038989273713 -0.616236736152403 3.000000000000000
9.493818084573569 26.654728845543097 -0.706672686073167 3.000000000000000
9.398244891586877 26.263995439251254 -0.772607235094235 3.000000000000000
9.560677387512932 26.793937690115563 -0.878497858380066 3.000000000000000
9.326468725456074 26.023946592594150 -0.920830066957031 7.000000000000000
9.307404043575353 26.123595130152687 -1.004394128565997 8.000000000000000
9.249309361717771 25.837778574423787 -1.069590178922201 25.000000000000000
9.273630058854700 25.781366841743370 -1.144784954808283 26.000000000000000
9.226196307288326 25.801017271585401 -1.226412863762762 26.000000000000000
9.096865435570713 25.526102041045199 -1.281922472912003 14.000000000000000
8.803112324483287 24.599327605678873 -1.294455835505565 10.000000000000000
8.333954500494421 23.335610470111000 -1.343921442724438 9.000000000000000
8.170556940423062 22.778178172046275 -1.367791580298811 12.000000000000000
7.677152238011708 21.399079639236298 -1.382539858916178 12.000000000000000
7.382762212299092 20.715048346646775 -1.384521270450143 10.000000000000000
7.262003365666281 20.286619525991320 -1.406468382692048 10.000000000000000
6.588959836076221 18.456899891210178 -1.567737031569330 34.000000000000000
5.684986978040257 15.830561718683022 -1.555503550549562 6.000000000000000
4.507145685002527 12.657420305940214 -1.551106163892746 8.000000000000000
4.154653820178694 11.591080557288272 -1.617671621420721 21.000000000000000
3.491429494426889 9.725813929652531 -1.611229898461667 8.000000000000000
3.225596997921251 9.024782557924105 -1.610480641468050 8.000000000000000
2.339776463034902 6.561847263776187 -1.611944851747491 31.000000000000000
9.545363133371204 26.422431187325479 1.582388192674746 0.000000000000000
9.508697212332201 26.332217156382619 1.090744722691767 2.000000000000000
9.511697189533258 26.367683824023295 0.929775702942429 2.000000000000000
9.478313177628984 26.150868534988483 0.845681603815651 3.000000000000000
9.492789655928071 26.341895426419718 0.767724892614301 2.000000000000000
9.457570707520595 26.120760845414033 0.683969505910153 3.000000000000000
9.515994288956399 26.361454249100909 0.604309073031632 2.000000000000000
9.523266720700427 26.256565282806072 0.522337536465051 3.000000000000000
9.457403858389092 26.228804786489441 0.442419530483159 3.000000000000000
9.468880727015112 26.134807260773250 0.360842043434809 4.000000000000000
9.493924288177077 26.354499154439985 0.279826344440195 3.000000000000000
9.430560029151003 26.056967201922497 0.200762699769864 3.000000000000000
9.539534630801590 26.435408231705715 0.115710794783851 3.000000000000000
9.503498850884263 26.212690958877012 0.036317302991588 4.000000000000000
9.466195964345594 26.262381359985092 -0.044370834337628 3.000000000000000
9.466255781982916 26.136772842678901 -0.123407227608745 3.000000000000000
9.492071093427604 26.359016984961876 -0.208425795752496 3.000000000000000
9.432402464871366 26.071469621172575 -0.282608643204139 3.000000000000000
9.520169209845115 26.392192020183693 -0.371403959538425 3.000000000000000
9.494665117799222 26.198209887395471 -0.448434379481456 3.000000000000000
9.454157039065812 26.239032942607828 -0.528996846603971 3.000000000000000
9.446784253541743 26.093402739857048 -0.605160947455242 3.000000000000000
9.479005813622869 26.333035284422145 -0.693907460750415 3.000000000000000
9.380287601274283 25.939076078680905 -0.758720086305791 3.000000000000000
9.522655227417296 26.408421028509757 -0.860539273323527 3.000000000000000
9.409747192268846 25.976745878300086 -0.920640813592532 4.000000000000000
9.301663241123869 25.832752561465391 -0.989755069244188 13.000000000000000
9.352676623710515 25.847074773185916 -1.072810841644471 18.000000000000000
9.300488383237699 25.731706652920927 -1.224497306457574 24.000000000000000
9.168765736586899 25.453503732275756 -1.279604504996610 22.000000000000000
8.897992078014788 24.598894334048900 -1.297313633548686 11.000000000000000
8.429954795516288 23.351803465133322 -1.348153635115422 8.000000000000000
8.248085673231508 22.750033073651785 -1.368368266630878 12.000000000000000
7.762293676750126 21.406290401250992 -1.386120291729035 11.000000000000000
7.443419273882220 20.663466714425105 -1.382583905626890 9.000000000000000
7.328059113723221 20.254181496717173 -1.406253573789079 10.000000000000000
6.656931856477584 18.449203310133683 -1.569923876446478 28.000000000000000
5.743856916541503 15.825979832806553 -1.557902567513251 6.000000000000000
4.550794171624368 12.645791900933219 -1.552047356994965 8.000000000000000
4.202941320449952 11.602768049392573 -1.622901005416010 15.000000000000000
3.522092253963699 9.710385189899917 -1.610633254669957 8.000000000000000
3.253825666187680 9.010297144249051 -1.609800312114802 8.000000000000000
2.360819392130061 6.554102108181745 -1.612106025927982 21.000000000000000
9.543704184504556 26.142239031211425 1.571487809858644 0.000000000000000
9.499708443107188 26.033267063877950 1.084095027863064 2.000000000000000
9.504360998947469 26.072398136315179 0.924847326990002 2.000000000000000
9.467032686940307 25.848343920043284 0.841482749289638 3.000000000000000
9.481326002216697 26.035362392183636 0.764322813436807 2.000000000000000
9.442139966459841 25.807002622023056 0.681389761478253 3.000000000000000
9.508483700961925 26.066156267900134 0.602688171275900 2.000000000000000
9.519203460416442 25.972630182438330 0.521551857028004 3.000000000000000
9.456536549011524 25.952415764363458 0.442395756478864 3.000000000000000
9.458941065773210 25.836032573666920 0.361723752517782 3.000000000000000
9.476948318784871 26.032942975920257 0.281725064401394 4.000000000000000
9.420501817256827 25.758293804963209 0.203312638805543 3.000000000000000
9.519757254214049 26.106296307322829 0.119551714420989 3.000000000000000
9.492306530250083 25.910114259359055 0.040625514541312 3.000000000000000
9.461291937832748 25.974748820832851 -0.039547723533550 3.000000000000000
9.450765455507785 25.823072332645573 -0.117129837271743 3.000000000000000
9.470982753863858 26.026291145700135 -0.200764727437576 3.000000000000000
9.418250564333825 25.761628908157725 -0.274685719577447 3.000000000000000
9.507254248597171 26.081992152685437 -0.362620227854403 3.000000000000000
9.482076343011563 25.892028830821609 -0.438895888985942 3.000000000000000
9.442273334791032 25.932821113038635 -0.518614378289169 3.000000000000000
9.438186562176590 25.798639578155480 -0.594402209610544 3.000000000000000
9.466231906377537 26.023007959223939 -0.681655833979723 3.000000000000000
9.374111223608743 25.652057151420372 -0.746689514868048 3.000000000000000
9.533516219666105 26.162066958603837 -0.849902128493154 3.000000000000000
9.422996711571038 25.742168206678990 -0.909944003133076 4.000000000000000
9.409248022074657 25.853077966716548 -0.993511136697756 10.000000000000000
9.422763873100401 25.766150052552966 -1.070430258386604 7.000000000000000
9.387961040193794 25.820501423105476 -1.150094895725786 20.000000000000000
9.400843549823129 25.733281717935860 -1.227469298674408 14.000000000000000
9.247211762969748 25.399416296458902 -1.278631389090783 23.000000000000000
8.997145723817788 24.609330331472968 -1.301019394913065 12.000000000000000
8.503896606534447 23.307800517065850 -1.347530288147182 10.000000000000000
8.322720951709833 22.714146330120791 -1.368318616774781 12.000000000000000
7.823785595066006 21.349716629489201 -1.383949886609993 12.000000000000000
7.507971778809114 20.622930722890352 -1.381700828896481 10.000000000000000
7.386989286681832 20.202870147050128 -1.404232778696992 11.000000000000000
6.720744595791551 18.430077805612640 -1.570820426685823 18.000000000000000
5.799953111214691 15.813749437091403 -1.559303947648636 7.000000000000000
4.593016637393681 12.630311174817223 -1.552364153489592 8.000000000000000
4.242932573058127 11.592182928068240 -1.623898673105719 27.000000000000000
3.556906713160267 9.705800719888096 -1.612554951646092 8.000000000000000
3.284791521561623 9.002988293284560 -1.610929510433521 8.000000000000000
2.383223359734608 6.549824430504351 -1.613506013515535 13.000000000000000
9.547240030445472 25.881080395428519 1.561370582932861 0.000000000000000
9.485937619826338 25.727206935975154 1.077285961581436 2.000000000000000
9.492270757346368 25.769991535364589 0.919806312286693 2.000000000000000
9.456579908497183 25.553697559877172 0.837391306867936 3.000000000000000
9.469245001373558 25.732969392343684 0.760967738093488 2.000000000000000
9.428864729830458 25.504896550066356 0.678896288802775 3.000000000000000
9.500437485653883 25.774969676225446 0.601089801401210 3.000000000000000
9.500565237801503 25.655357580982304 0.520759082044142 3.000000000000000
9.439807568734629 25.638896595702796 0.442479234021928 4.000000000000000
9.441391178754678 25.522669632286387 0.362702255800338 4.000000000000000
9.466266683709868 25.734293960470630 0.283433490543791 3.000000000000000
9.404249840039306 25.448773686172267 0.206008172213819 5.000000000000000
9.510457932397607 25.811336541479839 0.122889268228965 3.000000000000000
9.477709186663567 25.604188681263786 0.045012225914277 4.000000000000000
9.444668680576648 25.661254206816629 -0.034150590601625 3.000000000000000
9.441663071262901 25.532247176998801 -0.111398370282687 4.000000000000000
9.465922653699359 25.742708184544902 -0.194447685098987 3.000000000000000
9.402054300880970 25.452200496603190 -0.266752852352236 6.000000000000000
9.502129954561376 25.798397774156108 -0.354721011084820 3.000000000000000
9.463237942919569 25.575029156047485 -0.428928356769065 3.000000000000000
9.425564986479380 25.619521978864093 -0.507919578140839 3.000000000000000
9.416381358385870 25.474328190940959 -0.582328216756487 4.000000000000000
9.458419357945523 25.732096898900657 -0.670267862199869 3.000000000000000
9.394178650246324 25.440191295696103 -0.738385795451654 13.000000000000000
9.517512159124330 25.848624555684360 -0.835688623753736 3.000000000000000
9.416408244799491 25.459219573655268 -0.896506904559492 8.000000000000000
9.414778727817712 25.599948619598329 -0.981080961660587 2.000000000000000
9.406577737416406 25.457081387608760 -1.053792111458415 12.000000000000000
9.446703001535219 25.709573376005302 -1.145608621760501 9.000000000000000
9.393161656366622 25.446759000330267 -1.210644699047208 14.000000000000000
9.323988608860382 25.341346210158129 -1.277393003025705 18.000000000000000
9.076777390875215 24.567093740790391 -1.300803618839784 9.000000000000000
8.577631267425595 23.263559817271961 -1.346910314226520 9.000000000000000
8.412713354553581 22.719040970503151 -1.371740612959636 11.000000000000000
7.896273242767229 21.322786360188580 -1.384491401865014 11.000000000000000
7.579352644124363 20.600833702698971 -1.382573564758304 9.000000000000000
7.444238351981745 20.147662364274758 -1.401852267915499 12.000000000000000
6.760582641168931 18.347495091069035 -1.564384227643346 14.000000000000000
5.856030522728688 15.801313921973836 -1.560708500838401 7.000000000000000
4.640820657535357 12.629446043854578 -1.555190733027201 8.000000000000000
4.297066295813664 11.618186218373552 -1.631957983136960 17.000000000000000
3.587470888182089 9.690153844790331 -1.611961552986358 8.000000000000000
3.315742400615953 8.995568753097444 -1.612060461260935 8.000000000000000
2.429431934294321 6.544551344367989 -1.617547759160291 8.000000000000000
9.489447021169035 25.463283608721632 1.544754450129482 0.000000000000000
9.480085985984793 25.447728034253196 1.071075492787555 3.000000000000000
9.479605542831855 25.471722353687888 0.914835474116350 3.000000000000000
9.479792770966561 25.352863894210550 0.834531297915390 14.000000000000000
9.458003226233153 25.438457101559230 0.757696634127761 4.000000000000000
9.473337649696283 25.360209476851914 0.677474162254778 10.000000000000000
9.481957349595113 25.461717331152109 0.599419145342659 4.000000000000000
9.494084549528687 25.375901511169637 0.519992825875756 10.000000000000000
9.445113723838709 25.389389855553382 0.442402400304194 13.000000000000000
9.478722536613652 25.359248985188181 0.362812038013982 14.000000000000000
9.455033731395382 25.439775456558174 0.285117670801325 5.000000000000000
9.464156781722217 25.345293397812718 0.206210740047645 6.000000000000000
9.486445405214347 25.483103248302221 0.126750658412315 4.000000000000000
9.493862725600714 25.384628277485426 0.047816280288077 13.000000000000000
9.454320440674088 25.422980593902231 -0.030360919521293 11.000000000000000
9.479029793984715 25.368850493080380 -0.108811440139749 10.000000000000000
9.447677481819774 25.429557365562012 -0.187287452787509 6.000000000000000
9.471910999105383 25.374908821165626 -0.266019478933394 3.000000000000000
9.479545058106176 25.474036499070472 -0.345407200759357 4.000000000000000
9.492131040952351 25.389214193313386 -0.423847990538596 12.000000000000000
9.440773985965954 25.396360519261798 -0.500850594367280 12.000000000000000
9.479152506536103 25.378320813719306 -0.580208854442903 5.000000000000000
9.441623982654868 25.422867101654028 -0.657996988721061 7.000000000000000
9.422819294905928 25.254638006459068 -0.731385289272865 1.000000000000000
9.495189890070712 25.524403947995445 -0.820869945097725 4.000000000000000
9.479064729745097 25.363264234957875 -0.893583089878727 2.000000000000000
9.449777605916559 25.429260583839913 -0.973526244257550 11.000000000000000
9.460772234479883 25.338765663929230 -1.049070681840864 2.000000000000000
9.439818678152115 25.426766472168516 -1.129843203947539 11.000000000000000
9.475744118180494 25.403146962375409 -1.210534435908803 22.000000000000000
9.359442679577334 25.174823265064781 -1.268366193453137 20.000000000000000
9.150540864173529 24.509679254821002 -1.299468938729845 11.000000000000000
8.659668613765483 23.241438822210561 -1.348117865015908 9.000000000000000
8.487183739469664 22.682602938033320 -1.371699403589872 12.000000000000000
7.964389107768874 21.284437662312463 -1.384020291345057 12.000000000000000
7.654920328042898 20.589654993149800 -1.384502197537900 9.000000000000000
7.508304105961621 20.110899070633117 -1.401283934620937 11.000000000000000
6.814124204659997 18.301997945381800 -1.562264537722541 11.000000000000000
5.912088964310897 15.788671144263702 -1.562116192618833 6.000000000000000
4.684404955670104 12.617335491084368 -1.556139293261089 8.000000000000000
4.334273468438255 11.599926273890368 -1.631548962563417 12.000000000000000
3.616534470886180 9.670766094766584 -1.610530468374586 8.000000000000000
3.339548282821767 8.969905855045518 -1.608671691894258 8.000000000000000
2.454686764066629 6.547071985269554 -1.621427718626921 7.000000000000000
9.554923427270190 25.374570023648339 1.541777091401475 5.000000000000000
9.538312651955046 25.340344708353676 1.068739814606616 7.000000000000000
9.535108536306062 25.356850090119728 0.912843119279469 8.000000000000000
9.526144066498965 25.215640772329358 0.832504596180953 1.000000000000000
9.514878611323290 25.327375991063853 0.756254298781516 5.000000000000000
9.508302200358237 25.193116624486855 0.675902426924000 1.000000000000000
9.540209035126971 25.354305666642681 0.598496146030414 7.000000000000000
9.531798383248066 25.216236833065885 0.519283793245170 1.000000000000000
9.501741508811286 25.278358314730191 0.441957916756010 1.000000000000000
9.523643247378082 25.218283075091342 0.362791450462992 1.000000000000000
9.514754985573681 25.336169632743129 0.285094707835231 7.000000000000000
9.520584636868044 25.234232577673190 0.206503790125806 1.000000000000000
9.543324195876203 25.371942881417773 0.127299062651477 8.000000000000000
9.541666882398083 25.251099485444961 0.049031014832063 1.000000000000000
9.498181765946462 25.278314505708757 -0.028589358887392 1.000000000000000
9.526853137723002 25.235368194757775 -0.106965281416483 1.000000000000000
9.510210239261760 25.333462872113692 -0.186174053279950 3.000000000000000
9.516964682499456 25.233984015168893 -0.263309720731507 1.000000000000000
9.540680745411699 25.374125582253704 -0.343758959650342 7.000000000000000
9.537081725279187 25.248270034160377 -0.420444392007397 1.000000000000000
9.481693756150570 25.244325933438851 -0.496656401239727 1.000000000000000
9.521278260815940 25.229966737621730 -0.575802349257361 1.000000000000000
9.511264579654302 25.345490980839138 -0.656559772664201 2.000000000000000
9.506146160371280 25.214660693241122 -0.731673366008068 2.000000000000000
9.546493617166938 25.398367670959367 -0.816562530879184 10.000000000000000
9.519639550817026 25.211259005157636 -0.887502416900530 1.000000000000000
9.530805230794435 25.381726045925525 -0.973295655091510 4.000000000000000
9.504220225997692 25.194296896674850 -1.042711786910931 1.000000000000000
10.051064153362937 26.766608517794445 -1.220778725249071 5.000000000000000
9.529521803840005 25.284731555342809 -1.205280506289983 10.000000000000000
9.429540898914290 25.101527522266913 -1.266056215786389 24.000000000000000
9.249805782412089 24.519073811373964 -1.303191132574040 9.000000000000000
8.741648650218671 23.219033422393188 -1.349330220075821 9.000000000000000
8.561499349786750 22.645915740987071 -1.371661832469929 12.000000000000000
8.040960261563562 21.268169319005516 -1.385585763812257 10.000000000000000
7.723345950028865 20.559598666795686 -1.384681354019517 9.000000000000000
7.577944977821552 20.088788971261870 -1.402167062939037 10.000000000000000
6.865996000424310 18.252632748987168 -1.559715121439468 9.000000000000000
5.965241965394895 15.768431032130138 -1.562525299011528 7.000000000000000
4.765687575191336 12.577945678122127 -1.555534886216834 8.000000000000000
4.371402575004531 11.581541858794694 -1.631141757357742 8.000000000000000
3.646948044928671 9.654921736554584 -1.609939905830681 8.000000000000000
3.368967248415082 8.958664725553959 -1.608901229615609 8.000000000000000
2.477110271463765 6.542427603189751 -1.622833064932693 8.000000000000000
9.627970825008781 25.191274879260966 1.458121254914167 0.000000000000000
9.571323559725080 25.169473384871999 1.064976360272791 1.000000000000000
9.575481633372441 25.204596434999694 0.910245732068314 1.000000000000000
9.576001888722082 25.089580585267591 0.830625017593583 1.000000000000000
9.560993219498449 25.190088420875689 0.754552413094770 1.000000000000000
9.566837736828269 25.089467901649492 0.674759719255811 1.000000000000000
9.599270530071017 25.250521567677005 0.597585885337755 1.000000000000000
9.603345202156369 25.146070643638687 0.518611180554109 1.000000000000000
9.546156735848179 25.137391067647194 0.441594928947248 1.000000000000000
9.590888931011072 25.136955397593447 0.362417269974417 1.000000000000000
9.562328528570980 25.202605155844303 0.285341064532965 1.000000000000000
9.574903256083267 25.119352815792986 0.206842262951072 1.000000000000000
9.580754706325514 25.212208235278844 0.128593388365453 1.000000000000000
9.607512390590593 25.165992186352533 0.049343992637637 1.000000000000000
9.558467625940558 25.178400506063333 -0.027789207329817 1.000000000000000
9.582552357498123 25.124219166408089 -0.105675994215322 1.000000000000000
9.559213496083650 25.203667727221351 -0.184120981797032 1.000000000000000
9.574171259376421 25.126594640194220 -0.261647007371155 1.000000000000000
9.578127942260615 25.214443841753983 -0.340063097568191 2.000000000000000
9.601457189902128 25.159472690352963 -0.419001301113224 1.000000000000000
9.551950794647659 25.170594198026883 -0.495645883929258 1.000000000000000
9.572616531753830 25.107699551893653 -0.572539162781222 1.000000000000000
9.545918112223042 25.178467818697591 -0.650924702057200 1.000000000000000
9.564733430380919 25.111078235559724 -0.728785162166802 1.000000000000000
9.588377188783433 25.249925377747452 -0.811062958491787 1.000000000000000
9.575196559694170 25.100224532066171 -0.883736875328668 1.000000000000000
9.542475714291704 25.155125291610979 -0.962406708198576 1.000000000000000
9.562679001661074 25.090772382814485 -1.038926088747421 1.000000000000000
9.551364789893803 25.201154866038571 -1.120618353620156 2.000000000000000
9.618676416423916 25.259283243596151 -1.206463499854448 16.000000000000000
9.497798912660890 25.024321199652739 -1.263479666035217 25.000000000000000
9.313094827600942 24.435094483533682 -1.299898091532912 11.000000000000000
8.823574424695302 23.196332646954779 -1.350547102444779 10.000000000000000
8.645801721971786 22.634984872763845 -1.373836851621723 11.000000000000000
8.102999646598015 21.214499008911567 -1.383765601141722 11.000000000000000
7.798869387022755 20.547878872504008 -1.386618357818418 9.000000000000000
7.643172973406656 20.055301208226815 -1.401967291171232 10.000000000000000
6.919049053416963 18.206828980171800 -1.557599417957125 9.000000000000000
6.024143127949188 15.762774319651754 -1.564941155124980 6.000000000000000
4.813506316193106 12.576399485649048 -1.558372126356439 8.000000000000000
4.402633293191883 11.548399486314750 -1.627911390418972 8.000000000000000
3.683120082305685 9.653494275777028 -1.612708221610923 7.000000000000000
3.398345324559067 8.947321195572819 -1.609132298930266 7.000000000000000
2.498074869123016 6.534204141839211 -1.623001580584268 6.000000000000000
9.699356490341735 25.120845143374019 1.456028675528250 0.000000000000000
9.629516601286859 25.065698833420477 1.062725137282393 1.000000000000000
9.622192593870416 25.070990035930116 0.907952149895027 1.000000000000000
9.636798436514731 24.993254569137029 0.829134600602205 1.000000000000000
9.613542752891512 25.071410010664628 0.753036310587296 1.000000000000000
9.623311477473102 24.981966148542632 0.673591957752853 1.000000000000000
9.632924064815690 25.083311736262964 0.596450321382175 1.000000000000000
9.661341570030139 25.042194152610300 0.517924457110755 1.000000000000000
9.613013522134331 25.056021913106328 0.441068033630152 1.000000000000000
9.641592002339202 25.014507635380518 0.362286314093326 1.000000000000000
9.619271338397162 25.095092183713270 0.285351348644883 1.000000000000000
9.632926022948091 25.015543672692367 0.207043820971323 1.000000000000000
9.637599418895029 25.104656736738754 0.129084874404460 2.000000000000000
9.656782640504510 25.039774315185376 0.050420418997190 1.000000000000000
9.625450322263212 25.096993427989723 -0.027395885510702 1.000000000000000
9.641975826038895 25.024149752737436 -0.104666147171139 1.000000000000000
9.613243051926894 25.088732922757494 -0.182485722350289 1.000000000000000
9.626372258531539 25.007918530028867 -0.259634419172031 2.000000000000000
9.637889204980645 25.114372218034610 -0.338415161078412 1.000000000000000
9.660944244007688 25.059355232788981 -0.417138737166254 1.000000000000000
9.607255674920644 25.059447046674215 -0.493119771422269 1.000000000000000
9.633439934985041 25.011417518054138 -0.570421338671864 1.000000000000000
9.614393042203581 25.100850344299651 -0.649489299475743 1.000000000000000
9.609595584628387 24.973886319243142 -0.724212400705804 1.000000000000000
9.632251866737541 25.108935541077123 -0.805959185413757 1.000000000000000
9.634480624057566 25.000245486450815 -0.880603537339372 1.000000000000000
9.605002008623607 25.062669711197366 -0.959512057165928 1.000000000000000
9.626364781673708 25.002009623287684 -1.036077699178461 1.000000000000000
9.602500504666132 25.078922669748657 -1.115392454162611 1.000000000000000
9.758752096344729 25.363569109231328 -1.216666201598142 20.000000000000000
9.554002402479817 24.917203553517972 -1.258753404091953 21.000000000000000
9.412384771621909 24.443801385701953 -1.303630602420636 12.000000000000000
8.905444872596426 23.173336596220885 -1.351768508410777 10.000000000000000
8.714048380389521 22.582926112158169 -1.372544560369051 12.000000000000000
8.167688180410970 21.168062421722134 -1.382625997910782 12.000000000000000
7.864210487450869 20.509902840160798 -1.386102707941482 9.000000000000000
7.703871898060406 20.010479410142089 -1.400683666344388 10.000000000000000
6.986449384684583 18.197865673929996 -1.559805109146603 8.000000000000000
6.081605868017732 15.753205128608073 -1.566859485035206 7.000000000000000
4.861368617299540 12.574666307735697 -1.561212357755534 8.000000000000000
4.435151260261812 11.518827372844292 -1.625388367325776 8.000000000000000
3.711975130975510 9.633803935075548 -1.611281518512155 8.000000000000000
3.430609428458737 8.943097455093337 -1.611174074745985 8.000000000000000
2.517546191162147 6.522396806328452 -1.621932882529575 5.000000000000000
9.731951894227983 24.953653534104951 1.450219531090695 0.000000000000000
9.679740895761576 24.943226991796941 1.060054485866979 1.000000000000000
9.684258802010284 24.978274022418923 0.906322743740723 1.000000000000000
9.714748774225889 24.941413391620394 0.828224866147768 1.000000000000000
9.668316161044451 24.960107267894678 0.751594047442350 1.000000000000000
9.679140794418494 24.874393202771664 0.672423243082956 2.000000000000000
9.684658590211932 24.964521707627590 0.595487927251397 1.000000000000000
9.718723690047035 24.938224921171333 0.517236816806331 1.000000000000000
9.670596842624072 24.952166025730186 0.440601831888259 1.000000000000000
9.703360505081982 24.921749357318951 0.361976697536919 1.000000000000000
9.674110411631254 24.983762692659120 0.285395162270639 1.000000000000000
9.680013944454480 24.885624543780757 0.207565619123134 1.000000000000000
9.696750706334235 25.004448383042138 0.129460677702131 1.000000000000000
9.715619480307176 24.939542751807672 0.051009703710440 1.000000000000000
10.100407756001964 26.049450518270724 -0.049599364143758 6.000000000000000
9.699341196309810 24.920248977791452 -0.103563953333693 1.000000000000000
9.670987419587568 24.984881647375822 -0.181164694844885 1.000000000000000
9.666069434709179 24.859464034090585 -0.256688677452952 1.000000000000000
9.692657177063857 25.003031143344238 -0.336383384779755 1.000000000000000
9.715417259623372 24.947988697150429 -0.414856316188295 1.000000000000000
9.667771688555952 24.963086067092725 -0.491201480486698 1.000000000000000
9.692232919486607 24.911295973085934 -0.568140757423495 1.000000000000000
9.667781428822302 24.985880034282637 -0.646303932140992 1.000000000000000
9.675677271222860 24.892427213639159 -0.722448234195997 1.000000000000000
9.700222670349014 25.031103035360026 -0.804234127751847 2.000000000000000
9.690230082309945 24.892738668138698 -0.877049641596070 1.000000000000000
9.661132596479383 24.955218621479766 -0.955729349813892 1.000000000000000
9.682187480834578 24.894541944711357 -1.032059410392283 1.000000000000000
9.642650097119819 24.930634811737299 -1.108446901204639 1.000000000000000
9.812962135476162 25.248228240266918 -1.211678171978121 23.000000000000000
9.589041944469066 24.758028237513422 -1.250260559837137 22.000000000000000
9.497122609084052 24.415029955990953 -1.304559222490672 16.000000000000000
8.987258930555761 23.150045374940852 -1.352994434200662 8.000000000000000
8.801210546225597 22.578809717250941 -1.375359770135261 11.000000000000000
8.241017937387532 21.143615416241268 -1.383523887981596 11.000000000000000
7.933782966067064 20.482837062775140 -1.386643553511426 9.000000000000000
7.767297434151921 19.972873318073120 -1.400127442909463 11.000000000000000
7.045039286052734 18.166481142175627 -1.559422580493670 9.000000000000000
6.134629414536334 15.732374847844461 -1.567277594039483 7.000000000000000
4.901844235067777 12.554443944605389 -1.560918117465716 8.000000000000000
4.476395994200189 11.511052073849243 -1.627105198792092 8.000000000000000
3.742220461884898 9.617622224720371 -1.610695466408367 9.000000000000000
3.456980641271819 8.924307152679482 -1.609598882189245 8.000000000000000
2.541387925610074 6.521044162469217 -1.624580280287830 6.000000000000000
9.802242541193230 24.882977246532995 1.448124415050319 0.000000000000000
9.732204541768347 24.828108372273668 1.057552069183877 1.000000000000000
10.256987136905330 26.047550995767303 0.842403902663484 2.000000000000000
9.719470268368305 24.841278081903504 0.750078482161971 1.000000000000000
9.720949469406968 24.733311254808832 0.671031264592818 1.000000000000000
9.754988733366027 24.893933369908844 0.594695383686304 1.000000000000000
9.759103768033434 24.793322134808086 0.516536260816927 1.000000000000000
9.705327422411365 24.792483443334937 0.440292912749082 1.000000000000000
9.919401869430295 25.214975662542933 0.359327482180898 20.000000000000000
9.729774586050205 24.876052653961828 0.285405063298473 1.000000000000000
9.827407574453026 25.008171278494792 0.204959110706616 19.000000000000000
9.743455283901348 24.874391899570817 0.130297862113972 1.000000000000000
9.866222136103225 25.069323473717240 0.047274657835577 21.000000000000000
9.704698019394407 24.799963473080901 -0.023685153270368 1.000000000000000
9.879573441674033 25.124334237227380 -0.110203273345093 19.000000000000000
9.719246528045424 24.858626486117053 -0.179214899826561 1.000000000000000
9.856388637283125 25.089657426237430 -0.265653664074999 21.000000000000000
9.763085023713337 24.932425624248829 -0.335763002638296 1.000000000000000
9.790066241623698 24.888483404249037 -0.414540074578268 1.000000000000000
9.735134932545229 24.885165557416975 -0.490044173789153 1.000000000000000
9.826246756774957 25.000271759348259 -0.574218622969647 5.000000000000000
9.721967530484299 24.874536222618765 -0.643293519894310 1.000000000000000
9.756147904423493 24.847902453139021 -0.722559711724949 3.000000000000000
9.755923433069491 24.923391347424250 -0.800919154609774 1.000000000000000
9.740885123722954 24.774019157014813 -0.872863314842122 1.000000000000000
9.728462527467862 24.877353620262461 -0.953726460529997 1.000000000000000
9.725499563565755 24.757328310943386 -1.026166556124126 1.000000000000000
9.836972259752095 25.171818215214721 -1.127299035115816 19.000000000000000
9.956905761793301 25.358893872259564 -1.222415103959122 18.000000000000000
9.658601557403024 24.687842346689443 -1.248224925257091 24.000000000000000
9.587709692925422 24.400772879459048 -1.306617068468645 13.000000000000000
9.063086136122301 23.111648353448707 -1.353006575907182 10.000000000000000
8.875053242569969 22.541070271241274 -1.375337869918354 12.000000000000000
8.311286331223208 21.111536707349039 -1.383747569714948 12.000000000000000
8.000294922809651 20.448131874699634 -1.386485655670935 9.000000000000000
7.829064232234167 19.931366580744623 -1.399211604463651 11.000000000000000
7.093102584833140 18.109078602803947 -1.556017866546774 11.000000000000000
6.192059143471845 15.722390096281885 -1.569202357969137 7.000000000000000
4.951231094061420 12.555996114356297 -1.564391204032734 8.000000000000000
4.508683228686444 11.481243834148096 -1.624584953763617 8.000000000000000
3.775381123541450 9.608588890075787 -1.611790333627915 10.000000000000000
3.487722558076769 8.916258008811134 -1.610739322580930 8.000000000000000
2.562272911870814 6.512596920324803 -1.624752157710417 7.000000000000000
9.857124695459156 24.775067742202246 1.444600558445937 0.000000000000000
9.788465056337692 24.724068911805084 1.055299803713314 1.000000000000000
9.791833956379968 24.755352663932378 0.902459467046621 1.000000000000000
9.815846779056635 24.703528629876551 0.824657756394565 1.000000000000000
9.783356728638431 24.755795327600403 0.748892492475627 1.000000000000000
9.793484616820457 24.745284586283113 0.593628830544625 1.000000000000000
9.918839957722518 24.944982582055793 0.515918899873563 19.000000000000000
9.872187559974186 24.963027345823853 0.439040679027376 18.000000000000000
9.994968038206459 25.154768013971371 0.358801884363076 12.000000000000000
9.877430458038013 24.998307299544514 0.283296157575456 21.000000000000000
9.923280910859511 25.000206884685859 0.203953721907496 13.000000000000000
9.901628409625381 25.022498506252354 0.126799605426161 21.000000000000000
9.992301007022739 25.135339863724859 0.044713417192983 11.000000000000000
9.997097026485768 25.282050106841844 -0.035678647299024 9.000000000000000
9.963807570136048 25.086509091625850 -0.110790991108925 12.000000000000000
9.913063577248856 25.095866572877092 -0.187548921018268 17.000000000000000
9.930032623773961 25.025979001636735 -0.265403124338783 11.000000000000000
9.907918250886347 25.047027853543888 -0.341567518222284 25.000000000000000
9.894440675315273 24.902853536894064 -0.417037433151989 4.000000000000000
9.849871125111541 24.925712725827331 -0.493755998928509 4.000000000000000
9.865046753953997 24.851489510789897 -0.569812736813666 4.000000000000000
9.803830915537212 24.833564931917330 -0.643616281733539 2.000000000000000
9.834925617761648 24.799408779663871 -0.722487504610988 4.000000000000000
9.803509279980439 24.797087213056308 -0.796609972424727 1.000000000000000
9.804325398665647 24.688563714295789 -0.870576057130093 1.000000000000000
9.743141898551208 24.669655163152889 -0.943937015766376 1.000000000000000
9.753002106792898 24.583079517766542 -1.017927375214357 1.000000000000000
9.733610202810432 24.667445985930406 -1.096762172382374 1.000000000000000
9.763821781332574 24.632413810189995 -1.174881560028335 1.000000000000000
9.729269705042647 24.621190347999494 -1.246461469319222 20.000000000000000
9.685796959391631 24.404666516085435 -1.310086631671266 15.000000000000000
9.153708959230208 23.109959455281079 -1.356068894332965 8.000000000000000
8.965241660732680 22.543723069978036 -1.378795277388499 12.000000000000000
8.382930846850790 21.082910142873622 -1.384314180006409 12.000000000000000
8.071143336569939 20.424286006022449 -1.387384816033936 9.000000000000000
7.910135212275570 19.937639227867244 -1.403012776473322 10.000000000000000
7.160310879455743 18.099447960766895 -1.558233661579357 10.000000000000000
6.249495985737774 15.712168394968479 -1.571130193200582 7.000000000000000
4.993123837520486 12.539121257955642 -1.564729232762084 8.000000000000000
4.542316073514456 11.455002767259970 -1.622772729469101 8.000000000000000
3.808521042135958 9.599434878452684 -1.612887050451268 13.000000000000000
3.515444870107629 8.900905576847684 -1.610071701377387 8.000000000000000
2.584626126661981 6.507572382348563 -1.626163723152984 7.000000000000000
9.879534855248743 24.589397245833730 1.438083220024704 0.000000000000000
9.844116011884942 24.619933627481380 1.053047022614068 1.000000000000000
9.838593376707330 24.628961058948143 0.900287721690700 1.000000000000000
9.886529579410869 24.636336498372224 0.823548866616438 2.000000000000000
9.946254429732754 24.914686948232095 0.750115333765818 15.000000000000000
9.986559439770751 24.902899225589685 0.671248686047146 21.000000000000000
9.944344206746912 24.874452595249430 0.593524624863590 17.000000000000000
10.003945407905825 24.910744179451619 0.515241067049016 18.000000000000000
9.951334622397262 24.914133210815372 0.438405809788822 22.000000000000000
9.979367304865725 24.872215798995960 0.359634401159040 27.000000000000000
9.967279338009838 24.975328293727024 0.282510554781196 16.000000000000000
9.976863838958913 24.888195824781882 0.204236735328167 126.000000000000000
10.005083813690753 25.032761317300249 0.125429667301103 15.000000000000000
10.000761053823318 24.912080721026179 0.047597466723144 28.000000000000000
9.959711893614887 24.943808355108523 -0.029675217516306 19.000000000000000
9.973729660091216 24.867039016737202 -0.106803223702969 31.000000000000000
9.968583567552749 24.987562057922425 -0.186133363337606 11.000000000000000
9.959516199776267 24.854740680892256 -0.261762432697539 23.000000000000000
10.005384595472812 25.042441151886955 -0.343271311419693 11.000000000000000
9.941493279032606 24.776204024274172 -0.414197818773510 5.000000000000000
9.903230140545837 24.813962744263058 -0.491236098788152 9.000000000000000
9.936189407978823 24.784138881733064 -0.569015005854717 11.000000000000000
9.884019149798611 24.788617166406475 -0.643767539026603 4.000000000000000
9.918010962238334 24.761759836345597 -0.722981663549098 6.000000000000000
9.897053446106646 24.785443918263631 -0.798473129090754 2.000000000000000
9.849136056729769 24.558597389949064 -0.865756612192397 1.000000000000000
