# This PCD file was generated using the MATLAB® pcwrite function
# from Computer Vision Toolbox®.
# .PCD v.7 - Point Cloud Data file format
VERSION .7
FIELDS x y z intensity
SIZE 8 8 8 8
TYPE F F F F
COUNT 1 1 1 1
WIDTH 631
HEIGHT 1
VIEWPOINT 0 0 0 1 0 0 0
POINTS 631
DATA ascii
13.987222229298144 -16.525008068918890 -1.592857725671345 8.000000000000000
13.510935446172200 -15.989699552829460 -1.590133965669328 7.000000000000000
12.780525736081367 -15.073685535663149 -1.595378557654514 8.000000000000000
12.489630289669313 -14.763018742504954 -1.608130448568193 8.000000000000000
12.189502788916700 -14.439048222613071 -1.620796400568110 9.000000000000000
11.806717756216351 -13.931582852435852 -1.606327342117766 10.000000000000000
11.248438436534041 -13.327587828089133 -1.620355092504690 9.000000000000000
2.920024601986365 -3.439325323615830 -0.546339208520772 0.000000000000000
2.875524339945823 -3.404328141616630 -0.624545807341997 0.000000000000000
2.747001411194673 -3.246504793749772 -0.664680039025673 0.000000000000000
2.628495602697115 -3.100900469557366 -0.701380000572220 3.000000000000000
8.439728111562179 -10.036239918179930 2.997625502000902 18.000000000000000
27.969960921424043 -33.353588260384413 1.540324393260210 1.000000000000000
28.306091203647455 -33.623625662978604 1.420622249485117 1.000000000000000
28.236133948902559 -33.642152102741441 1.285800620597075 1.000000000000000
28.216809252062401 -33.479118871808254 1.155915126703482 1.000000000000000
28.157760334486738 -33.605850379611773 1.022998642254179 11.000000000000000
28.305838265414110 -33.645705591093581 0.895662279508068 5.000000000000000
28.211986578099761 -33.635071618863570 0.761769209144531 5.000000000000000
28.320934522947713 -33.628457194955061 0.633409174021726 5.000000000000000
28.216426753439897 -33.604939471523032 0.499974493355057 6.000000000000000
28.330540755548547 -33.603570461341363 0.371328453517800 5.000000000000000
28.163008580274116 -33.599163654485920 0.237588275113395 5.000000000000000
28.312212967545314 -33.640300645774403 0.107324603946413 5.000000000000000
28.214318465327278 -33.624795173843900 -0.023690460426840 4.000000000000000
28.314191703821404 -33.607093028429105 -0.154462623741197 6.000000000000000
28.223454857283276 -33.600347577405557 -0.284377781028237 6.000000000000000
28.331030521050359 -33.590953454451686 -0.417161593555102 5.000000000000000
28.174671174200327 -33.600321110146346 -0.546617639578678 4.000000000000000
28.322429267062425 -33.639565287804054 -0.680644986598744 5.000000000000000
28.159612617467715 -33.545287447751889 -0.806587193812445 5.000000000000000
28.316379452861057 -33.596559606889478 -0.942472962852599 5.000000000000000
28.247055861339664 -33.615905348226278 -1.071736545233292 5.000000000000000
26.963028123520253 -32.110764185909638 -1.252565966762248 9.000000000000000
26.498909057551401 -31.413886652372582 -1.342147445718778 12.000000000000000
26.043798110896311 -30.957591701838858 -1.434517348975784 10.000000000000000
25.515931392419201 -30.410479578371412 -1.518680140411628 6.000000000000000
3.768630405084175 -4.471919518035537 -0.252245686640316 0.000000000000000
21.940847481527570 -26.171983465835556 -1.545556380570917 9.000000000000000
21.130175279045066 -25.072836128229980 -1.564818839736449 7.000000000000000
20.493913717162190 -24.372632512997718 -1.601051013986377 9.000000000000000
3.372599148796708 -4.024916540742861 -0.285485846050222 1.000000000000000
18.140583203938565 -21.538472481788254 -1.616110268571208 8.000000000000000
17.107182704864016 -20.384387254817604 -1.581805572877188 7.000000000000000
16.326756382009815 -19.483624158227002 -1.568618587198740 8.000000000000000
16.015787856677022 -19.019197939417328 -1.597310288137001 6.000000000000000
15.023631895119134 -17.912459163706977 -1.615218763634564 5.000000000000000
14.576947460391333 -17.286593359326556 -1.616624038399273 8.000000000000000
13.924349894938771 -16.570119634954064 -1.593290702025470 8.000000000000000
13.430029720995668 -16.008303800327607 -1.587413100675372 8.000000000000000
12.720284946822090 -15.111492896310217 -1.595295668279222 7.000000000000000
12.442929113861622 -14.815319303505447 -1.610129040196734 9.000000000000000
12.134009902481548 -14.477893790982538 -1.621069997047057 10.000000000000000
11.750441497840219 -13.965979409745206 -1.606115875211880 10.000000000000000
11.421055153882250 -13.599534454113300 -1.606323305475721 9.000000000000000
2.912131214852317 -3.458655624851962 -0.548952567937700 0.000000000000000
2.730893865584828 -3.252364312980883 -0.663887926322071 0.000000000000000
2.625938926653081 -3.125572809252515 -0.706594373327553 4.000000000000000
27.681743335021839 -33.242787965979552 1.532433736916841 0.000000000000000
28.029162695967329 -33.529812608829907 1.413899039107315 1.000000000000000
27.996024764130347 -33.453142082845226 1.151935719540859 1.000000000000000
28.092117545812979 -33.629208853337808 0.892735539400804 5.000000000000000
27.968146002669364 -33.580900276670924 0.759018406911182 6.000000000000000
28.097080109787765 -33.599686844792309 0.631305460211985 6.000000000000000
27.977667336177984 -33.557062758810112 0.498372377659907 6.000000000000000
28.083887698747482 -33.547057748471524 0.370299035806170 5.000000000000000
27.924355962901753 -33.550972380210872 0.237108797514535 5.000000000000000
28.083253518886409 -33.605264394310737 0.107236661181967 5.000000000000000
27.985613526942082 -33.589261369179496 -0.023264944873121 4.000000000000000
28.082753509960430 -33.569047268537254 -0.153481467964674 6.000000000000000
27.977071172478244 -33.543245423274719 -0.282445274733131 6.000000000000000
28.102123876894577 -33.556145651267137 -0.415229071410143 5.000000000000000
27.948602619852608 -33.567731628100759 -0.544254044665718 5.000000000000000
28.101033099886617 -33.613910484053036 -0.678011285074008 5.000000000000000
27.908412595893068 -33.481746884571415 -0.802049198466698 7.000000000000000
28.097621748850845 -33.574062158160615 -0.939028380840533 5.000000000000000
28.013247750592683 -33.574461146552323 -1.066979164335017 6.000000000000000
28.141968225541245 -33.591583488350501 -1.201763512284511 12.000000000000000
26.860822975986888 -32.219660581659106 -1.254961874600005 10.000000000000000
26.396649591580623 -31.518046623845173 -1.344399624030351 10.000000000000000
25.950703250761201 -31.069460086515740 -1.437360790593035 11.000000000000000
25.465064879477151 -30.570117833679518 -1.524802184736423 5.000000000000000
3.826408863433594 -4.570333566420674 -0.247507211418823 0.000000000000000
21.841733396863614 -26.241690135973620 -1.546356871021916 9.000000000000000
21.004687182359248 -25.102556855210189 -1.562566281159485 7.000000000000000
20.403627566066600 -24.440406589643896 -1.601982913697413 8.000000000000000
19.452892565470723 -23.342126939032138 -1.599715253213670 9.000000000000000
18.085344804452294 -21.629061770596525 -1.619829906427032 7.000000000000000
17.025820924352260 -20.434142366633800 -1.581875956313956 9.000000000000000
15.956723540518979 -19.086897433757798 -1.599564007694336 6.000000000000000
14.955975913773674 -17.961158778351056 -1.615739451028367 8.000000000000000
3.307476705029222 -3.965306148725983 -0.375471553404195 0.000000000000000
13.871269300498945 -16.627437210024198 -1.595230003861902 8.000000000000000
13.386351644806879 -16.073263217319802 -1.590529193541710 8.000000000000000
12.679774551557511 -15.173960110366611 -1.598512282314546 8.000000000000000
12.405911608640181 -14.879949362594449 -1.613822322440078 9.000000000000000
11.703945843260142 -14.012631838476103 -1.607691053491548 10.000000000000000
11.375844696123984 -13.645044361720480 -1.607904073833419 9.000000000000000
2.875301198664610 -3.436015071619185 -0.540959658279755 0.000000000000000
2.833366311602380 -3.403962502657863 -0.619577517804540 0.000000000000000
2.716955442523191 -3.261377085985486 -0.664043110975022 0.000000000000000
2.614599237872830 -3.137430757648442 -0.707756592314053 5.000000000000000
27.651173456876030 -33.447515012706660 1.534087420402941 1.000000000000000
27.808573274958366 -33.466376832155262 1.148730468493510 1.000000000000000
27.936836127019912 -33.579341056942503 1.019515742920341 11.000000000000000
27.853648089436124 -33.580583414645446 0.889481909598373 5.000000000000000
27.727541422121753 -33.528561811073189 0.756311306736521 17.000000000000000
27.848542526451258 -33.538731879513676 0.629111688759168 9.000000000000000
27.749657113512729 -33.520370171229324 0.496786534696059 14.000000000000000
27.840497213017272 -33.492345590187924 0.369278559219048 8.000000000000000
27.706499670020833 -33.526418877399543 0.236451826902982 14.000000000000000
27.837233252624038 -33.547313804865937 0.107422967138617 6.000000000000000
27.737364689452843 -33.527687249872649 -0.022433947235740 11.000000000000000
27.836786154608344 -33.511185552211245 -0.152120772811495 10.000000000000000
27.746539272214918 -33.503484124376342 -0.280921660574468 16.000000000000000
27.848556231467114 -33.489145531502992 -0.412441169230420 10.000000000000000
27.713044227357212 -33.521547259268871 -0.541489734428441 12.000000000000000
27.852428585936174 -33.552989442843952 -0.674180112099533 7.000000000000000
27.723423442804219 -33.497661168468973 -0.800581839386037 13.000000000000000
27.841526829527609 -33.503933530856166 -0.933603588518760 9.000000000000000
27.767482546725660 -33.516280683564986 -1.061489195940212 12.000000000000000
27.868080037311419 -33.500037880202321 -1.193993228277047 12.000000000000000
26.780807365743151 -32.356205820892505 -1.258847481849404 10.000000000000000
26.256182809376739 -31.575364812967901 -1.343976919644265 9.000000000000000
25.877262811701314 -31.205905568494998 -1.441718089444398 10.000000000000000
24.529732251384726 -29.635899610006355 -1.459938627281168 7.000000000000000
3.810192056913180 -4.586395789558778 -0.248187557902042 0.000000000000000
21.722386140624089 -26.286133522828582 -1.545257238892572 9.000000000000000
20.926885948224175 -25.190730798670600 -1.565030667818966 8.000000000000000
20.313114776085495 -24.507856406782988 -1.602909578837985 8.000000000000000
3.362818931745339 -4.045896526014396 -0.287305906092630 1.000000000000000
17.992214314218611 -21.672889217506409 -1.619110258947503 7.000000000000000
16.939341194282118 -20.477340607739887 -1.581326454523313 8.000000000000000
16.256056112456527 -19.539985710581337 -1.569566492167182 7.000000000000000
15.874978263446675 -19.126400712857599 -1.598836948820390 6.000000000000000
14.893117133599256 -18.015864681219671 -1.616964837557012 6.000000000000000
3.288808436394228 -3.973084191637319 -0.375049027111518 0.000000000000000
13.795689137301913 -16.656524085815338 -1.593767860662021 9.000000000000000
13.339911261273658 -16.134998596279249 -1.593254056891267 7.000000000000000
12.619224857333339 -15.211377014686722 -1.598423144341881 8.000000000000000
12.348877627186436 -14.919532822230231 -1.614119790163885 9.000000000000000
12.083330815075726 -14.522768882038495 -1.622212989858910 10.000000000000000
11.647427856701144 -14.046647392049120 -1.607473278497724 10.000000000000000
11.330452300445028 -13.690413375310140 -1.609482594037334 9.000000000000000
2.856315842588940 -3.439061056600005 -0.539491314537872 0.000000000000000
2.698647524207887 -3.263891739331650 -0.662300573532001 0.000000000000000
2.603205433188522 -3.149256574090208 -0.708918302805132 4.000000000000000
27.258903624475789 -33.203485607048307 1.522321685709225 0.000000000000000
27.606353950891258 -33.496406765322462 1.404685858947989 1.000000000000000
27.581922552803825 -33.569792196878936 1.272749228388646 21.000000000000000
27.551002952247941 -33.391600272029834 1.143916724345069 3.000000000000000
27.686268091333559 -33.514379632102056 1.015499069443902 15.000000000000000
27.633426925052881 -33.552501800389145 0.886489016495646 12.000000000000000
27.565308782129762 -33.571623668997631 0.754316889207392 9.000000000000000
27.648495817775103 -33.535608158149834 0.627143932809695 16.000000000000000
27.569882954234039 -33.541719153912233 0.495196440835936 10.000000000000000
27.643078445839723 -33.492359177448101 0.368048685711716 13.000000000000000
27.637144544101691 -33.544104621762877 0.106972911064170 12.000000000000000
27.567566389960994 -33.561440516280250 -0.023081560243564 7.000000000000000
27.639294076848007 -33.511157422633410 -0.151880588557362 17.000000000000000
27.586836938427417 -33.549768541211833 -0.281391223149595 7.000000000000000
27.646075449760488 -33.483000479653022 -0.411305504637863 15.000000000000000
27.545751598404106 -33.558322547285421 -0.541284908436718 4.000000000000000
27.654793276488807 -33.552990894535291 -0.672473579769168 14.000000000000000
27.568726986507958 -33.550091674142372 -0.800529290974383 14.000000000000000
27.644031040899982 -33.503975754812188 -0.931167761990341 18.000000000000000
27.597673427058552 -33.550213158043526 -1.060257214350991 9.000000000000000
27.675594372487925 -33.506461185423994 -1.191141747965683 11.000000000000000
26.707670852713928 -32.501940539076266 -1.263229375896594 15.000000000000000
26.130689633892612 -31.650743628627723 -1.344613424753314 9.000000000000000
25.778138386948473 -31.311093147598122 -1.444174523197252 9.000000000000000
3.839628490302732 -4.646436232275226 -0.236344699230785 0.000000000000000
3.791608575169602 -4.599162565943147 -0.248405490003076 0.000000000000000
20.813770932557311 -25.235073363152658 -1.564006963490307 8.000000000000000
20.224868073098964 -24.578099581005489 -1.604091578594818 8.000000000000000
3.339338463687908 -4.047355150479047 -0.285870232317010 1.000000000000000
17.913920789747770 -21.735049515580204 -1.620160354618586 9.000000000000000
16.860195582193299 -20.529582895050215 -1.581694024337519 8.000000000000000
16.172743011834189 -19.580501603271021 -1.568913243737322 8.000000000000000
15.817928563718178 -19.196800122685932 -1.601414942305008 7.000000000000000
14.820184153233308 -18.057847554848305 -1.616769018226943 7.000000000000000
3.234144003059301 -3.928772158341231 -0.364840755772192 0.000000000000000
13.747165306855191 -16.719714617929689 -1.596456427588902 8.000000000000000
13.273536547104390 -16.171561627651897 -1.592858543299392 8.000000000000000
12.563482102735632 -15.254825178723419 -1.599156691407293 8.000000000000000
12.281902478000323 -14.946385428016967 -1.612715926239060 9.000000000000000
12.037400778257682 -14.573724693432094 -1.624226241436522 9.000000000000000
11.595708270845501 -14.086711259836914 -1.608147626437551 9.000000000000000
11.284878400793930 -13.735640783854492 -1.611058854271314 9.000000000000000
3.681787554936776 -4.458425948938585 -0.584566446564520 0.000000000000000
2.865880273919657 -3.484179473828024 -0.548631123247058 0.000000000000000
2.836402671381986 -3.439174446145552 -0.626799182607502 0.000000000000000
27.065643888370484 -33.204128759884718 1.517943071824237 0.000000000000000
27.114396363403021 -33.126945033563509 1.390949942805724 1.000000000000000
27.341832372215897 -33.374726530922246 1.140224560244273 1.000000000000000
27.526609251735302 -33.560392522820514 1.013156008858908 5.000000000000000
27.448723143067735 -33.567039621753707 0.883992914084220 2.000000000000000
27.340747510877705 -33.535800736186978 0.751779923367296 3.000000000000000
27.441304897393241 -33.522141239145746 0.625160513022468 3.000000000000000
27.342861279251494 -33.502838137903282 0.493646576690386 3.000000000000000
27.443493462254640 -33.488290483790564 0.366847632313889 3.000000000000000
27.524208284628685 -33.544432857804260 0.235464336124087 4.000000000000000
27.419918563858580 -33.518071203755170 0.106795840965295 3.000000000000000
27.337988952834007 -33.519398673391855 -0.022551495786770 3.000000000000000
27.442139133649619 -33.510168852496093 -0.151624559882580 3.000000000000000
27.349749062710156 -33.498489513604099 -0.279616255846988 3.000000000000000
27.512478392415503 -33.620711945584524 -0.673115435065835 17.000000000000000
27.448924014832002 -33.645603359198361 -0.802135342693296 255.000000000000000
27.511892588117259 -33.584154643223897 -0.932124382128006 8.000000000000000
27.447932311340551 -33.608344275862457 -1.060155006641336 19.000000000000000
27.488406037453544 -33.518190732869044 -1.188584264251388 11.000000000000000
26.613902606939106 -32.622559471534558 -1.266278771005958 13.000000000000000
25.999990366003335 -31.719415437065116 -1.344885535143050 9.000000000000000
25.661137109243914 -31.394124199064997 -1.445295799242768 11.000000000000000
3.811651787518505 -4.646321782227969 -0.234765164241985 0.000000000000000
3.761546440589689 -4.595622865266481 -0.246313780766257 0.000000000000000
21.652801105598439 -26.392483179053585 -1.548887879330320 9.000000000000000
20.767708600518525 -25.363293301684397 -1.569699526685464 7.000000000000000
20.123971974429168 -24.632399145204687 -1.603964971964021 10.000000000000000
3.313632001652928 -4.045448471413382 -0.283890087773323 1.000000000000000
17.818072646084371 -21.775046837303787 -1.619133138833292 9.000000000000000
16.815414977937859 -20.625410410504621 -1.586364605554170 9.000000000000000
16.109118910809645 -19.645710156598181 -1.570811188862038 7.000000000000000
15.728505547144685 -19.226338491830763 -1.599685059339755 6.000000000000000
3.173115473024526 -3.874347311068001 -0.352791961327905 0.000000000000000
13.683652473174954 -16.763952687231672 -1.596875308311128 8.000000000000000
12.936682464217382 -15.794786050289204 -1.604434759219076 7.000000000000000
12.519823732862108 -15.313762301571234 -1.601953765321225 8.000000000000000
12.239309889764904 -15.004354319752967 -1.615553906642401 9.000000000000000
11.974123117459033 -14.602613244068806 -1.623180982790145 10.000000000000000
11.546284881400270 -14.129734355715669 -1.609267005222642 11.000000000000000
11.236691543533297 -13.777578124285775 -1.612172882696153 8.000000000000000
3.647787616972566 -4.448170470088620 -0.580015608062407 0.000000000000000
2.838033258157363 -3.474160592865054 -0.543896800950853 0.000000000000000
2.693294261981187 -3.285720940787479 -0.666248308236088 0.000000000000000
2.602443362905303 -3.177178853704805 -0.715146603656461 5.000000000000000
27.172926809969297 -33.443125463680929 1.395136301040628 1.000000000000000
27.130942192225842 -33.494098522503052 1.263655132445680 1.000000000000000
27.167990318754860 -33.400614466962061 1.137357147878851 0.000000000000000
27.269761706903740 -33.483693340130387 1.009040776646356 2.000000000000000
27.209516115946997 -33.511804841838646 0.880762736207642 2.000000000000000
27.116769930547960 -33.498829452816175 0.749261949354341 3.000000000000000
27.222092232966919 -33.491994373315592 0.623141797261162 4.000000000000000
27.126386981024030 -33.475339845066216 0.492109890063256 3.000000000000000
27.226826754167952 -33.461344772650882 0.365754451302767 3.000000000000000
27.302237565311508 -33.511532592187265 0.234891722555418 2.000000000000000
27.213163199396764 -33.503466028699016 0.106489545092936 3.000000000000000
27.114007093219211 -33.482443275322012 -0.022099235612011 3.000000000000000
27.222912430003522 -33.480055674303138 -0.150809131594463 3.000000000000000
27.130753870757992 -33.467918465062979 -0.278326055146263 3.000000000000000
27.234782489348138 -33.458339816225958 -0.408732776802780 3.000000000000000
27.443354561040124 -33.675628406078360 -0.543555777659118 124.000000000000000
27.397396415035868 -33.722287093969165 -0.674931644176885 255.000000000000000
27.374548391316601 -33.657572690122649 -0.932810335239734 98.000000000000000
27.293148232458062 -33.659598802865659 -1.059756641627740 15.000000000000000
27.346315912276481 -33.585291471717873 -1.188798195647580 16.000000000000000
26.524576106611566 -32.749207385436641 -1.269657253227777 9.000000000000000
25.866639791526982 -31.784442283004328 -1.344970807377764 8.000000000000000
25.568692588029073 -31.508035233211601 -1.448312122107889 10.000000000000000
3.804245010651975 -4.675369499814238 -0.237232352696715 0.000000000000000
3.733827561738380 -4.595195826379586 -0.244681543534094 0.000000000000000
21.535623278182122 -26.439222273732998 -1.548011764109557 8.000000000000000
20.624490143325346 -25.369330121658930 -1.565674104489832 7.000000000000000
20.020470540205441 -24.683167390045988 -1.603571059517180 9.000000000000000
3.299188808909294 -4.059745822943745 -0.284622154845180 1.000000000000000
17.734489298447990 -21.830327423176541 -1.619580840985074 9.000000000000000
16.040310925263444 -19.704448152952114 -1.572066551481805 7.000000000000000
15.658715091140715 -19.280608197669707 -1.600599562706975 6.000000000000000
14.761877610123772 -18.118369354063365 -1.618696235577734 7.000000000000000
3.168151751755506 -3.901233618922292 -0.356032053980609 0.000000000000000
13.624877291739855 -16.814252574192327 -1.598046647871715 8.000000000000000
13.204619203148619 -16.204726953120748 -1.592068888121624 7.000000000000000
12.434483741165547 -15.319119652250780 -1.597720023240401 8.000000000000000
12.191596161399994 -15.055921144067877 -1.617540673056164 9.000000000000000
11.927846376768631 -14.653233286633537 -1.625188913934757 10.000000000000000
11.486994313694204 -14.159999377037835 -1.608591400232739 11.000000000000000
11.183504272909277 -13.813059297933076 -1.612364229096070 8.000000000000000
2.812461126146926 -3.467256855384626 -0.539976480144923 0.000000000000000
2.774711848965973 -3.409201046424441 -0.613878960982518 0.000000000000000
2.668506839305089 -3.278403471566852 -0.661657772350163 0.000000000000000
2.595136588880527 -3.195437918737704 -0.718334955623592 4.000000000000000
26.914909527159377 -33.257134440857570 1.515158717382164 0.000000000000000
26.721579058573802 -33.116642802528922 1.382685070726202 1.000000000000000
26.655265698716818 -33.135551655894552 1.252130348533395 1.000000000000000
26.909966839023383 -33.319025456663780 1.132546805617448 1.000000000000000
27.058448367117840 -33.462098629679019 1.005768862082471 3.000000000000000
27.005705601560049 -33.499287477842550 0.878027471584641 3.000000000000000
26.995984856255717 -33.451314860932726 0.621110543898247 3.000000000000000
26.912910235642574 -33.449891271373382 0.490589608292377 3.000000000000000
27.005718068119748 -33.427029661117025 0.364705904807394 3.000000000000000
27.078347401057364 -33.474378045781201 0.234362990335802 2.000000000000000
27.006841689238136 -33.487836064001186 0.106200157961206 3.000000000000000
26.893087453125080 -33.447486605572315 -0.021676876443260 3.000000000000000
26.991831364625572 -33.433135620214564 -0.149672587275497 3.000000000000000
26.904878949702876 -33.426812118449639 -0.276800488119948 3.000000000000000
27.006195320965144 -33.414688452921439 -0.406621523901292 3.000000000000000
27.134461884579135 -33.532416698093677 -0.537867477667873 140.000000000000000
26.864609077764964 -33.398649049279733 -0.788711643995719 2.000000000000000
26.989130188079450 -33.416797003244390 -0.920349488861616 3.000000000000000
26.895863506961717 -33.402501173809704 -1.045324828300059 2.000000000000000
27.154480274284502 -33.589133427140233 -1.185904201583964 10.000000000000000
26.466798643483727 -32.916479965508501 -1.275198922895133 12.000000000000000
25.730672749498261 -31.845797880841882 -1.344868800148424 10.000000000000000
25.465875445570713 -31.609135048246095 -1.450563087501065 9.000000000000000
3.792139917813857 -4.697909933271955 -0.238799837133977 0.000000000000000
3.710682113808051 -4.601170912869221 -0.243971179877313 0.000000000000000
21.465283142728349 -26.545104964358671 -1.551634798969354 8.000000000000000
20.513508076543506 -25.415523941634319 -1.564878717972935 6.000000000000000
19.914398266645939 -24.730372800256220 -1.602909389332934 9.000000000000000
3.275758901761366 -4.060911697675042 -0.283181670219103 1.000000000000000
17.667917193294340 -21.907308627610718 -1.622098469590144 8.000000000000000
16.730883571365016 -20.670899267331400 -1.586108984856336 8.000000000000000
15.959035069277334 -19.747226529918290 -1.571718849451724 8.000000000000000
15.593624306106566 -19.340935972643845 -1.602173102105282 6.000000000000000
14.695988080960047 -18.169277554044726 -1.619556389144885 7.000000000000000
3.138676643307153 -3.892122500298496 -0.352541332464495 0.000000000000000
13.570774499865063 -16.870664812400022 -1.599971292953545 8.000000000000000
13.142936808255474 -16.247058130602728 -1.592445031303039 8.000000000000000
12.390488930721611 -15.377691219554695 -1.600511222860197 8.000000000000000
12.136407460661189 -15.097872342648763 -1.618250400132678 9.000000000000000
11.869228769023056 -14.687971385990572 -1.625010155037679 10.000000000000000
11.446951553040959 -14.215281752796560 -1.611497809101784 10.000000000000000
2.789130246571660 -3.463491541435020 -0.536870552997509 0.000000000000000
2.751609529747947 -3.405353808844832 -0.610505048473437 0.000000000000000
2.648069336582360 -3.277451281921182 -0.658962828426486 5.000000000000000
2.600417251984401 -3.233142548549890 -0.727605358293585 4.000000000000000
26.633145955148581 -33.142880388603629 1.507470217030305 1.000000000000000
26.699596929242858 -33.435862473102844 1.255119674958804 1.000000000000000
26.731861395002252 -33.336733100089738 1.129595810052561 0.000000000000000
26.842674624440225 -33.433155667958346 1.002423503033953 3.000000000000000
26.752990053686428 -33.422781961902011 0.874634210047828 2.000000000000000
26.890908684375088 -33.457569328297261 0.746741029820597 3.000000000000000
26.775427161178474 -33.415774362347946 0.619118829772448 3.000000000000000
26.692548371880978 -33.413916648054503 0.489092562257160 3.000000000000000
26.775297833555012 -33.379004394617809 0.363729612168832 3.000000000000000
26.852576080561413 -33.432934053217217 0.233878500001514 2.000000000000000
26.768892486145283 -33.430250963506403 0.106410288495193 3.000000000000000
26.662892034122645 -33.398792162881826 -0.021040004942357 2.000000000000000
26.778686784164485 -33.407052949927312 -0.148941080211370 3.000000000000000
26.691939023668819 -33.400298503319128 -0.275618086631877 3.000000000000000
26.788123929837351 -33.382439342716459 -0.404828016114450 3.000000000000000
26.859026803853968 -33.428342723288637 -0.533398158988681 2.000000000000000
26.815871418796977 -33.477372093127805 -0.663223492022595 2.000000000000000
26.627172129876630 -33.340475630102311 -0.784532620921498 3.000000000000000
26.793293086246763 -33.412787469387219 -0.917846738327029 3.000000000000000
26.712547132201919 -33.413808732040167 -1.043171800708781 3.000000000000000
26.767859016995320 -33.343769630247536 -1.170744215294526 1.000000000000000
25.611847640164104 -31.928614565488601 -1.346008769448817 9.000000000000000
25.365121261484799 -31.713052259523682 -1.452999340844263 10.000000000000000
3.768631626652246 -4.704076316265875 -0.238116329468232 0.000000000000000
3.689789723616594 -4.610322574987557 -0.243721362850829 0.000000000000000
21.394462427693615 -26.650827480693415 -1.555255360796703 9.000000000000000
20.422073352693261 -25.486461120956317 -1.566071650819253 8.000000000000000
19.849848883171916 -24.830751528082043 -1.606680444930729 8.000000000000000
3.252358112770656 -4.061972503703513 -0.281739455640656 1.000000000000000
17.559476707737261 -21.930496597191219 -1.619571505068080 9.000000000000000
16.665790111335628 -20.741269452991808 -1.588311887708434 8.000000000000000
15.899605360421395 -19.818068084124025 -1.574246049505200 8.000000000000000
15.523431623082061 -19.394739677486037 -1.603080038136483 5.000000000000000
14.617745487568957 -18.204187232928383 -1.618638399576811 7.000000000000000
3.135736518539304 -3.922247915814410 -0.356392837416311 0.000000000000000
13.489831325232036 -16.892113752670728 -1.597731158717187 8.000000000000000
13.098090653896950 -16.311270901111957 -1.595549273788063 7.000000000000000
12.774914973429542 -15.943635848993683 -1.608688069933300 7.000000000000000
11.815340781187038 -14.728805105413436 -1.625701905961652 10.000000000000000
11.389830342934902 -14.248314328805421 -1.611264137032244 10.000000000000000
11.147072059469831 -13.870460887223203 -1.615773925318941 7.000000000000000
3.618209057315588 -4.519147423548143 -0.682443855786922 0.000000000000000
2.719996170335153 -3.388348539104132 -0.603596984969691 0.000000000000000
2.642528369578361 -3.299193498820721 -0.662909199782234 6.000000000000000
26.470607450331670 -33.178385267657774 1.504251489576796 1.000000000000000
26.551266400829114 -33.386569706822939 1.381755466326749 0.000000000000000
26.453164266591322 -33.224263398241874 1.124311589457798 1.000000000000000
26.644646552808982 -33.425203629125114 0.999413199475564 5.000000000000000
26.540416692244946 -33.395455523959996 0.871800587251723 2.000000000000000
26.682895284372997 -33.437214697091342 0.744391421650543 3.000000000000000
26.565272835879760 -33.391737229720185 0.617185764393844 3.000000000000000
26.472763381202171 -33.376821441086157 0.487614078259662 3.000000000000000
26.577509297403786 -33.370799474619780 0.362597005577797 3.000000000000000
26.629882163777097 -33.393486232246985 0.233387650790877 3.000000000000000
26.548861905079615 -33.393524571157222 0.106380083348039 3.000000000000000
26.566051153055518 -33.379899938372780 -0.148191870353792 3.000000000000000
26.479510043213136 -33.372715876980500 -0.274417991040519 3.000000000000000
26.568145654295858 -33.345931721429906 -0.402931733388052 3.000000000000000
26.633849451017959 -33.385817736917154 -0.530826442712722 2.000000000000000
26.566176842674587 -33.402997783263885 -0.659058135150006 3.000000000000000
26.414974293894009 -33.312658492375789 -0.781531307825203 3.000000000000000
26.565870210465867 -33.366829705452339 -0.913616605244322 3.000000000000000
26.502502717838681 -33.389527639281482 -1.039427399017987 3.000000000000000
26.597172596621039 -33.370306095018812 -1.169050174734242 2.000000000000000
26.413090682363976 -33.090056927340726 -1.281074521367196 18.000000000000000
25.527116606368406 -32.055146243710986 -1.349645726816482 10.000000000000000
25.283545121452661 -31.841916999915448 -1.456955684331878 10.000000000000000
3.740630847016180 -4.703587039406263 -0.236530669017956 0.000000000000000
3.668875535423923 -4.619393430175172 -0.243470230086097 0.000000000000000
21.306035315150556 -26.734298548563725 -1.557210895354656 7.000000000000000
20.359689909020503 -25.594975189631288 -1.570254780257595 6.000000000000000
19.728793480245692 -24.858278249263304 -1.604439359976360 7.000000000000000
3.242234888739083 -4.082673485871925 -0.283555058354314 1.000000000000000
17.451087002530397 -21.953209306195163 -1.617036660025134 8.000000000000000
16.566341324399630 -20.767208017843451 -1.586197930010456 8.000000000000000
15.813162763756720 -19.853961493725581 -1.573248975585528 8.000000000000000
15.448204020953106 -19.441967572303156 -1.603319501706974 6.000000000000000
14.539435360044630 -18.238775831270793 -1.617715234554082 7.000000000000000
3.117280439253975 -3.929380290534880 -0.355959668710617 0.000000000000000
13.036055999597339 -16.353218144417582 -1.595919182290738 7.000000000000000
12.704549868123467 -15.971782340263054 -1.607420903495448 7.000000000000000
12.083480321340668 -15.142800781313031 -1.619382110994590 9.000000000000000
11.763712991508939 -14.772617567294585 -1.626827816887084 10.000000000000000
11.351759164701697 -14.306520060335984 -1.614615031126637 9.000000000000000
11.107972899075621 -13.924617689717348 -1.618722089558231 6.000000000000000
3.595414724731795 -4.524752722539360 -0.681176182207636 0.000000000000000
2.703448449117081 -3.394054606118884 -0.602868496955525 0.000000000000000
2.626306860736326 -3.304635563125736 -0.662110288347808 6.000000000000000
2.601255713681686 -3.264435670747498 -0.734849630000026 3.000000000000000
26.244457055796968 -33.130988808210581 1.498641169873605 1.000000000000000
26.293048808503695 -33.262103998399319 1.121793458886674 1.000000000000000
26.427410776357345 -33.390984435778897 0.996057563087904 6.000000000000000
26.335689854788040 -33.376555984046746 0.869084911649659 2.000000000000000
26.470447813123148 -33.409508468923384 0.742015720976433 3.000000000000000
26.353164101467694 -33.363485347669759 0.615260184930244 3.000000000000000
26.256002019234511 -33.341777603204292 0.486151981401944 3.000000000000000
26.360516716317598 -33.336318598606681 0.361589855204531 3.000000000000000
26.420034465295920 -33.368713876506007 0.232787427848176 3.000000000000000
26.334301113857645 -33.362006143028893 0.106293539682576 3.000000000000000
26.467677065178911 -33.393163843027324 -0.021071195704642 3.000000000000000
26.349036521554339 -33.345351683100390 -0.147303052396267 3.000000000000000
26.262713288425697 -33.337732711522506 -0.273054730836210 3.000000000000000
26.351195114786368 -33.311462188305157 -0.401101510010799 3.000000000000000
26.419090754688845 -33.354783406750556 -0.528620733675112 3.000000000000000
26.346659527470990 -33.365266525661944 -0.656169101888897 3.000000000000000
26.188655302254169 -33.264771155456238 -0.777792584960487 2.000000000000000
26.363552565130284 -33.351324871015052 -0.910685228239108 3.000000000000000
26.278304381171395 -33.345205135660116 -1.034804513823081 3.000000000000000
26.385017638796235 -33.342341187097986 -1.164702200590011 3.000000000000000
26.356040786842517 -33.260509158625304 -1.286784005097097 15.000000000000000
25.454027494294692 -32.197288187077284 -1.354174680513477 10.000000000000000
25.228198718249295 -32.005421771241672 -1.463007838312898 10.000000000000000
3.714911319322990 -4.706255521872228 -0.235393291749015 0.000000000000000
3.634563671024489 -4.608638115092232 -0.240443323124113 0.000000000000000
21.205105025301830 -26.801665453890344 -1.557973662502708 9.000000000000000
20.279779578207627 -25.681209404498588 -1.572687887694526 7.000000000000000
19.581103222351704 -24.850403715718141 -1.599313623596150 10.000000000000000
3.214431563313181 -4.076973888798946 -0.281023398186069 1.000000000000000
17.374231441146055 -22.016649198371223 -1.618352968935426 7.000000000000000
16.493555158490580 -20.827560880152628 -1.587467839191453 8.000000000000000
15.748413762450163 -19.918041439518305 -1.575128804828136 7.000000000000000
15.372832740502096 -19.488915767841537 -1.603554432627111 6.000000000000000
14.477948121321385 -18.295248134941094 -1.619273143355086 7.000000000000000
3.092269911125965 -3.926548308770386 -0.353688375824043 0.000000000000000
13.440204217141032 -16.954447914957072 -1.600406053081290 8.000000000000000
12.976287663629455 -16.398114248132803 -1.596675973942758 7.000000000000000
12.641333615718580 -16.009170706131350 -1.607355168880418 8.000000000000000
12.025587928362247 -15.181206478211866 -1.619660576156305 9.000000000000000
11.719098350935667 -14.825784226787292 -1.629262976813080 10.000000000000000
11.299125254166748 -14.345550486544326 -1.615272751544889 9.000000000000000
2.684771623865015 -3.396420089902146 -0.601255625630024 0.000000000000000
2.620576553091519 -3.326360600376919 -0.666056440185661 6.000000000000000
2.593536507402343 -3.282761643738336 -0.738039173122346 4.000000000000000
26.075040628414211 -33.155326457029567 1.495172944584836 2.000000000000000
26.130204470634112 -33.332095621401649 1.372624619517418 5.000000000000000
26.202042255174778 -33.284568871125714 1.244735456674161 1.000000000000000
26.091571395031867 -33.245323134856314 1.118318686525184 2.000000000000000
26.213173518934983 -33.358837532136953 0.992765089464814 7.000000000000000
26.104653018642278 -33.321726547671794 0.866019662315426 2.000000000000000
26.241439403361660 -33.358547730421790 0.739507501073216 3.000000000000000
26.139138902419941 -33.330996311822283 0.613342471218464 4.000000000000000
26.039805729232548 -33.305631931697754 0.484708054524273 3.000000000000000
26.141649277734924 -33.297573307237144 0.360614736487859 3.000000000000000
26.198491543073462 -33.327038895629300 0.232333366557185 3.000000000000000
26.130015701751848 -33.342110025609614 0.106074619035484 3.000000000000000
26.250863883093114 -33.358066739371701 -0.020643370140112 2.000000000000000
26.144761554645019 -33.325568479724090 -0.146701669832420 3.000000000000000
26.063496603392466 -33.323878828376330 -0.272183627806204 3.000000000000000
26.144555541913356 -33.288582860967630 -0.399592098725212 3.000000000000000
26.212185390157803 -33.332176223253690 -0.526686395797360 2.000000000000000
26.127727481389432 -33.326425891933432 -0.653261640950113 3.000000000000000
26.144620785297235 -33.312628924360375 -0.906813702866761 3.000000000000000
26.062027376507004 -33.309251291542786 -1.030593587548775 3.000000000000000
26.173380240068560 -33.313317664112773 -1.160336600133493 2.000000000000000
26.278621159309797 -33.405635215493398 -1.291157249783106 15.000000000000000
25.387549924608145 -32.348835580460715 -1.359239459343635 9.000000000000000
25.145312096435699 -32.134028130799827 -1.466960379619889 9.000000000000000
3.695885688944098 -4.718694480083895 -0.235605672262621 0.000000000000000
3.620329469475061 -4.627390330374676 -0.241576336373190 0.000000000000000
21.125781170160774 -26.897210715765894 -1.560870521775540 8.000000000000000
20.170477604494991 -25.729101087294556 -1.572118449300714 7.000000000000000
19.494070005446357 -24.921268435083768 -1.600715741372380 9.000000000000000
3.199814248388983 -4.090976075041972 -0.281750593974765 1.000000000000000
17.258573613175269 -22.028977415477502 -1.614913230043541 8.000000000000000
16.408491013105646 -20.871789383259159 -1.587191761639868 9.000000000000000
15.661753230625360 -19.953305375131446 -1.574121497547303 8.000000000000000
15.302120499031064 -19.541948027392593 -1.604448907314856 6.000000000000000
14.406633837404348 -18.338806430598307 -1.619406630665021 7.000000000000000
13.929879548478130 -17.766564564795839 -1.623490242315412 8.000000000000000
13.371128060330914 -16.991211169251251 -1.600049610816480 9.000000000000000
12.923536352512025 -16.452348636228905 -1.598601393508894 7.000000000000000
12.594712905950258 -16.068602922464539 -1.610100784848121 7.000000000000000
11.967571489247934 -15.219401554857530 -1.619935632901045 9.000000000000000
11.652817379266056 -14.850174390714070 -1.627758910056891 10.000000000000000
11.255837029497382 -14.397158205770278 -1.617722658055248 9.000000000000000
2.676647501887048 -3.415119434160397 -0.604058658006138 3.000000000000000
2.589877971319656 -3.307607504302199 -0.743256746291902 4.000000000000000
25.772268199561537 -33.004105136752223 1.486648910738069 0.000000000000000
26.093029341753660 -33.388018376947514 1.243478014171115 8.000000000000000
25.766842991364065 -33.065349033350358 1.111963024120448 0.000000000000000
26.011611982208407 -33.341505476794914 0.989714784377222 8.000000000000000
25.905802008135485 -33.307084333100811 0.863405232223711 2.000000000000000
26.037392170005752 -33.338189255402703 0.737231891188496 3.000000000000000
25.925659307574648 -33.297429842509850 0.611442589065418 3.000000000000000
25.923371366294518 -33.257716474182921 0.359658050272106 3.000000000000000
25.992121521395951 -33.303305732993891 0.231742483397596 3.000000000000000
25.921342982949739 -33.314838833851226 0.105947762788018 3.000000000000000
26.039474059628336 -33.328228751087558 -0.020296231728487 2.000000000000000
25.936095099180402 -33.298413542566081 -0.145961068279481 2.000000000000000
25.847757038412730 -33.286765444614531 -0.270785092230737 3.000000000000000
25.923838394247813 -33.245602088289552 -0.397556315875148 3.000000000000000
26.008184797699773 -33.311714183211286 -0.524831645744953 3.000000000000000
25.919074745109121 -33.299199531742907 -0.650769702544614 3.000000000000000
25.992134036939696 -33.253833508508549 -0.775475931194076 3.000000000000000
25.933550145858316 -33.282359369242329 -0.903320072217412 3.000000000000000
25.870510127980758 -33.304033798245911 -1.027802625510855 3.000000000000000
25.942862553129459 -33.257817164590726 -1.154708228558088 3.000000000000000
26.181096974454103 -33.525221963272436 -1.294190767710959 14.000000000000000
25.322741564614638 -32.503498330820655 -1.364482719762410 9.000000000000000
25.054581977955923 -32.252908580686444 -1.470336999628143 11.000000000000000
3.681238834430022 -4.737666096395044 -0.236718267248839 0.000000000000000
3.597180078061404 -4.632891127502631 -0.240858210124677 0.000000000000000
21.031564727293677 -26.973456833766750 -1.562336374706435 8.000000000000000
20.130929192517922 -25.868884496985796 -1.578792974769301 6.000000000000000
19.401970496306884 -24.985463987996937 -1.601589642046927 10.000000000000000
18.569016744459596 -23.780818560279002 -1.596338990732093 9.000000000000000
17.941337965388751 -23.026195519852461 -1.615427665640953 8.000000000000000
16.320916156352176 -20.912502010284378 -1.586601756186119 8.000000000000000
15.594193983186480 -20.013718875322937 -1.575673047705877 7.000000000000000
15.226442761142668 -19.588339627029519 -1.604674964306652 5.000000000000000
14.339969795902562 -18.388473520087686 -1.620246713928370 6.000000000000000
3.067314308407940 -3.923593317513931 -0.351415089373498 0.000000000000000
13.313884485949963 -17.043649351588382 -1.601582832216620 8.000000000000000
12.865800142545897 -16.500042158495269 -1.599742663776896 7.000000000000000
8.076957689618862 -10.358962208192210 -1.039301950878230 0.000000000000000
11.914183435026512 -15.263765078504242 -1.621058246360877 9.000000000000000
11.605470208730873 -14.899815376444398 -1.629751237907246 10.000000000000000
2.662133014051729 -3.423942027026651 -0.604210915748018 6.000000000000000
2.614722872319597 -3.348094731959549 -0.670002781196105 4.000000000000000
25.620673050455331 -33.048744858380587 1.483857860582765 1.000000000000000
25.703955783120172 -33.263839589961272 1.363322680701335 1.000000000000000
25.631987296535989 -33.132256849406417 1.110058309021759 1.000000000000000
25.793581587058668 -33.300870796975829 0.986367715710929 8.000000000000000
25.683261183937830 -33.259552583435038 0.860476700463465 2.000000000000000
25.826552136386866 -33.307262402281879 0.734909446003105 3.000000000000000
25.717556010136896 -33.269164515560121 0.609579392824902 3.000000000000000
25.833857118969689 -33.281140180303026 0.483272612437927 3.000000000000000
25.708102973735404 -33.219940489177382 0.358705620870590 3.000000000000000
25.781402246719978 -33.272177898343202 0.231220613937232 3.000000000000000
25.701120358336649 -33.270571112706953 0.106027297317186 3.000000000000000
25.843117246788005 -33.316448831358372 -0.020228900498066 3.000000000000000
25.715869102548453 -33.254265178384784 -0.144896211381050 3.000000000000000
25.635000702072411 -33.251755147274096 -0.269441689839553 3.000000000000000
25.732717432102820 -33.239747702263344 -0.396522326911605 3.000000000000000
25.775654665409014 -33.252010590871890 -0.521799927774466 3.000000000000000
25.715750737870337 -33.277312702504361 -0.648477812552497 3.000000000000000
25.779083798668825 -33.219647697055429 -0.772301719043001 3.000000000000000
25.713357017828478 -33.238276372095584 -0.899279970815390 3.000000000000000
25.648042142180358 -33.256414677057798 -1.023125118141943 2.000000000000000
25.729949579074507 -33.223422330824292 -1.150150596047925 2.000000000000000
26.027510157873294 -33.571309601144755 -1.293370521767183 17.000000000000000
25.259568693812071 -32.661298329122459 -1.369904830634637 9.000000000000000
25.001808745689665 -32.422600966602268 -1.476769116969085 10.000000000000000
3.659900562545166 -4.746677381444064 -0.236477957797968 0.000000000000000
3.466680384476765 -4.496595089220778 -0.237223362007584 0.000000000000000
20.925058886265592 -27.033434850696697 -1.562606712653624 7.000000000000000
20.011536589611445 -25.903368832150637 -1.577212526893211 6.000000000000000
3.176441740900259 -4.091674283478707 -0.280302471331710 1.000000000000000
17.829572894498718 -23.049862835974121 -1.613052969541849 9.000000000000000
16.264307899387337 -20.994382703410643 -1.590019080008567 8.000000000000000
15.514482196874379 -20.057932168804768 -1.575617495375205 8.000000000000000
15.153002863858662 -19.637661620623383 -1.605228852660971 6.000000000000000
14.644929832925099 -18.874955256528917 -1.601607752397924 8.000000000000000
3.055354840163434 -3.940401821646076 -0.352815343847140 0.000000000000000
13.246936229577630 -17.083117822121338 -1.601597364699536 8.000000000000000
12.791300076114670 -16.525136576467538 -1.598144133642110 7.000000000000000
7.979998073939067 -10.306011632357103 -1.028535407446220 0.000000000000000
11.865357506370520 -15.314346289509167 -1.623029246400821 9.000000000000000
11.550836889414050 -14.939727311984669 -1.630428140984073 9.000000000000000
11.205243879940785 -14.439051877322640 -1.618823917048753 9.000000000000000
2.736459813780447 -3.542073444661797 -0.545827137609909 0.000000000000000
2.651755918595074 -3.439308690870621 -0.606129734654082 6.000000000000000
2.581936112646627 -3.325937045487908 -0.746446420466725 4.000000000000000
25.423380425276026 -33.032035263816482 1.479331868548613 0.000000000000000
25.191580445817472 -32.828293586723930 1.348687268887526 1.000000000000000
25.640268131794510 -33.284094864091770 1.234367449767715 1.000000000000000
25.576149381641880 -33.259130632155667 0.983038915750417 8.000000000000000
25.485361544662695 -33.242884783772361 0.857895722646378 2.000000000000000
25.604211530831233 -33.259303943698278 0.732499348634280 3.000000000000000
25.500356647181128 -33.227072842120400 0.607696116663927 3.000000000000000
25.613944537084976 -33.236464064928960 0.481869356393989 3.000000000000000
25.507834535612037 -33.200259977378536 0.357685666853829 3.000000000000000
25.568810044874770 -33.236798863940649 0.230742363705806 3.000000000000000
25.498321617262850 -33.247580111419133 0.105859498758364 2.000000000000000
25.615870757557765 -33.262184656598038 -0.019499783706916 3.000000000000000
25.515481207645657 -33.234584391027994 -0.144305171000964 3.000000000000000
25.503490138967166 -33.181837941400055 -0.394110267395113 3.000000000000000
25.570307963527643 -33.226245832070703 -0.519813452842751 3.000000000000000
25.505693572085164 -33.244827991780312 -0.645843085637784 3.000000000000000
25.583431623332444 -33.206740989513094 -0.769952541093437 3.000000000000000
25.503392048184512 -33.205862270279020 -0.895750838644150 3.000000000000000
25.438204029508942 -33.223654939296331 -1.019149210438623 2.000000000000000
25.524800503230818 -33.197538445813578 -1.146043013735741 2.000000000000000
25.885937074657299 -33.632706903728305 -1.293377151030282 17.000000000000000
25.188401532068333 -32.809474318879559 -1.374787892101719 10.000000000000000
23.836708632645617 -30.976091422857351 -1.506260719151794 11.000000000000000
3.569643884558452 -4.631671854327455 -0.239212947276239 0.000000000000000
20.839907266491149 -27.121787633108827 -1.565014360541541 6.000000000000000
19.899304138947450 -25.946946303153904 -1.576374714375122 6.000000000000000
19.309657254365870 -25.049316678890079 -1.602458150829566 10.000000000000000
3.155262089050240 -4.095594964319054 -0.279396452635498 1.000000000000000
17.727387290812718 -23.085842402944916 -1.611811478884506 9.000000000000000
16.174037041774294 -21.031306197405538 -1.589110732819269 7.000000000000000
15.441766157066054 -20.111442790731054 -1.576519513593773 8.000000000000000
15.103074364188640 -19.718789251995542 -1.609103071582765 5.000000000000000
14.559763710279034 -18.903041214367139 -1.600051142632009 8.000000000000000
3.032586156923324 -3.940583171860014 -0.351151694812583 0.000000000000000
13.186961598517332 -17.131950347109150 -1.602745064731678 8.000000000000000
7.839527516800943 -10.191128143988767 -1.009219868541672 0.000000000000000
12.417971594583173 -16.198058824113769 -1.612287357994178 7.000000000000000
11.806906344733628 -15.351952940345488 -1.623294846183855 10.000000000000000
11.496063113676396 -14.979448339805696 -1.631101964401295 9.000000000000000
11.163885712682410 -14.493591407131412 -1.621718637466752 8.000000000000000
2.706859731996527 -3.527934507828913 -0.540262188396664 1.000000000000000
3.230143377801966 -4.203558010912222 -0.716872684914122 2.000000000000000
