# This PCD file was generated using the MATLAB® pcwrite function
# from Computer Vision Toolbox®.
# .PCD v.7 - Point Cloud Data file format
VERSION .7
FIELDS x y z intensity
SIZE 8 8 8 8
TYPE F F F F
COUNT 1 1 1 1
WIDTH 635
HEIGHT 1
VIEWPOINT 0 0 0 1 0 0 0
POINTS 635
DATA ascii
8.150969489116090 -12.535054462600224 3.347727734927197 16.000000000000000
8.497541435017096 -13.089246488414069 2.599772151603518 31.000000000000000
8.493055026779670 -13.067554737399474 1.735058595684968 40.000000000000000
8.486328207036875 -12.987708583859513 0.632060228706943 3.000000000000000
9.275831909353849 -14.253454815427585 0.433616400338878 1.000000000000000
8.882716470543851 -13.685512132540298 0.085380024795987 0.000000000000000
8.855648750521036 -13.579726334734261 0.038067080578076 11.000000000000000
8.867838461181142 -13.651170347147927 -0.013871295171678 7.000000000000000
8.819279719863149 -13.511162074250338 -0.059337405228595 11.000000000000000
8.804305286969658 -13.537822232086967 -0.109174164464328 12.000000000000000
8.818407719916953 -13.500221080126511 -0.158159611570264 14.000000000000000
8.802468797179998 -13.549035264135346 -0.209137812584803 12.000000000000000
8.824876584628031 -13.524562719466042 -0.259064814050140 11.000000000000000
8.853357071997866 -13.622460468608052 -0.313511252592547 10.000000000000000
8.844093797153825 -13.546742583472126 -0.359908730282030 16.000000000000000
8.830685560335304 -13.575908299217602 -0.410297009633600 12.000000000000000
8.869546766561420 -13.578308549208192 -0.461691042921334 16.000000000000000
8.663317668942579 -13.316541954053426 -0.491380639794147 15.000000000000000
8.502404330928396 -13.103154956494416 -0.524795087279085 6.000000000000000
8.521374655522765 -13.075442465668134 -0.571171621055988 7.000000000000000
8.503847396811656 -13.097012176498536 -0.620438979688490 13.000000000000000
8.487182974113734 -13.010850502413776 -0.661183993269483 12.000000000000000
3.466784289698094 -5.329037758492852 -0.293503880196965 0.000000000000000
3.398694095539010 -5.233212052756162 -0.300945892785222 3.000000000000000
8.528963886517994 -13.142279256579362 -0.818157974029141 10.000000000000000
8.533014887159233 -13.089662670612499 -0.861740564898655 11.000000000000000
8.546152022253320 -13.161691625786077 -0.916712119250307 10.000000000000000
8.533415517343368 -13.081700281606389 -0.956635555703880 14.000000000000000
3.142517646876570 -4.843038377738594 -0.380252497396877 0.000000000000000
8.535705391724102 -13.098567521473502 -1.055740580410600 13.000000000000000
8.550745157111074 -13.173178684475989 -1.112234007811268 8.000000000000000
8.548232649467163 -13.109778387868145 -1.153651726804323 12.000000000000000
8.548371654748008 -13.160506951390666 -1.207662673756374 10.000000000000000
8.543615255185758 -13.093555449495138 -1.247403362596606 8.000000000000000
8.548017960429208 -13.150615569389490 -1.303043588789456 6.000000000000000
8.528363746556250 -13.081778796076319 -1.343741358474050 7.000000000000000
8.540840059514119 -13.152126233980177 -1.400970987374002 8.000000000000000
8.544167454346681 -13.098348805152851 -1.442201183685319 8.000000000000000
3.642630297440943 -5.587624171128020 -0.633797809760121 1.000000000000000
2.837935923463106 -4.371320570681259 -0.603240260950853 0.000000000000000
2.820055477692428 -4.336448639539189 -0.718389166020144 0.000000000000000
2.651493217876562 -4.065266573140619 -0.751099988562828 3.000000000000000
7.578392249758013 -11.603526842065301 -2.224453552395644 0.000000000000000
8.110537921140986 -12.572974537163438 3.349407359253963 16.000000000000000
8.426419529816677 -13.080931687066421 2.593713407498063 35.000000000000000
8.430092754896075 -13.072680256198010 1.732489030700025 28.000000000000000
9.242557368256229 -14.263206096877777 0.485027828867591 0.000000000000000
9.233605898925280 -14.302253044862656 0.433002606549492 0.000000000000000
8.863498944434486 -13.705603146916909 0.034412643857256 4.000000000000000
8.825371722629335 -13.633444605540314 -0.063516721022017 9.000000000000000
8.806029857322665 -13.653275606800328 -0.113372642843999 6.000000000000000
8.785029629650753 -13.557641608722310 -0.159935893629302 9.000000000000000
8.820540175325791 -13.691867882024024 -0.215295045169530 7.000000000000000
8.826641260944973 -13.640024013883201 -0.264149455578503 9.000000000000000
8.852594010051863 -13.734667598627345 -0.318697083076456 18.000000000000000
8.868745236474901 -13.699720820428992 -0.367863314882101 23.000000000000000
8.850913161545323 -13.722085964997484 -0.418234573980824 21.000000000000000
8.879601010511418 -13.707434912962887 -0.468881358715676 25.000000000000000
8.518325522359063 -13.179580993183523 -0.577499582813584 5.000000000000000
8.488570293166301 -13.121610453052567 -0.668602181196225 12.000000000000000
3.458681486157250 -5.364856483903438 -0.296873034762444 1.000000000000000
3.362024748251886 -5.216678801262546 -0.297407780682929 2.000000000000000
3.329030593118564 -5.133761044665889 -0.306108176698157 3.000000000000000
8.531921320448268 -13.197140615533662 -0.869952135670254 10.000000000000000
8.534481150056184 -13.192495972495431 -0.965743010191667 6.000000000000000
8.537040032773032 -13.247103143091914 -1.020064097839773 7.000000000000000
8.532374516579297 -13.202588029747124 -1.064639975768380 8.000000000000000
8.546987036382186 -13.217173491093956 -1.163474051275105 8.000000000000000
8.546837949302782 -13.267945873649820 -1.217761581343112 9.000000000000000
8.536275939633816 -13.190650119485225 -1.256471092339079 6.000000000000000
8.546574443941575 -13.257972374879404 -1.313679747445794 6.000000000000000
8.529129806920444 -13.192422232524269 -1.355082077421748 5.000000000000000
8.535070567449708 -13.252663335722190 -1.411206990475857 10.000000000000000
8.536673459838651 -13.195390881435504 -1.452197977898010 10.000000000000000
3.602707993593508 -5.568726725127718 -0.628463854693811 0.000000000000000
3.635790081168833 -5.625454283132594 -0.771627534694374 1.000000000000000
2.779606143327742 -4.304335043809548 -0.708706539414764 0.000000000000000
2.632454821890242 -4.070492842521421 -0.750359838167552 3.000000000000000
2.490767736641248 -3.842982426310392 -0.784362558057283 4.000000000000000
2.385240803373722 -3.680204377821592 -0.827978089212122 4.000000000000000
8.076012467263423 -12.620899959041941 3.353225938867352 16.000000000000000
8.443241628681474 -13.204021089393013 1.740979028617398 16.000000000000000
10.876330881326300 -16.951294455864740 0.972178891800588 0.000000000000000
10.793684794557839 -16.872065628205277 0.541649443579227 0.000000000000000
9.118613222820048 -14.231197408967997 0.433037374022625 0.000000000000000
8.817375810051457 -13.786043808208046 -0.118316038829584 5.000000000000000
8.834227266407176 -13.751718209294621 -0.168117509911260 13.000000000000000
8.835972007240606 -13.769349180187259 -0.269971934512274 10.000000000000000
8.543570201900867 -13.341347688479374 -0.489928178207583 0.000000000000000
8.507356013521745 -13.220998812102845 -0.531884041360456 4.000000000000000
8.518769488711280 -13.290702976779523 -0.584362038086345 5.000000000000000
8.508891219683456 -13.214791777839912 -0.628139368898900 10.000000000000000
8.483096614836283 -13.222317877411427 -0.675155739170742 6.000000000000000
3.436934590893210 -5.376327537422505 -0.297064876161146 2.000000000000000
3.327422223565114 -5.203445792826265 -0.294332692863604 2.000000000000000
3.296611605239621 -5.123925951996576 -0.303429617939636 3.000000000000000
8.531645067692079 -13.256682331518556 -0.826754010384785 11.000000000000000
8.526059166690109 -13.297953501295893 -0.877493850053943 10.000000000000000
8.540568660469782 -13.262446907408739 -0.924503584778697 8.000000000000000
8.522514464610575 -13.283023135229021 -0.972696113011359 6.000000000000000
3.109301042793746 -4.829087424262635 -0.376599783229063 0.000000000000000
8.532525272702303 -13.313580262283866 -1.074307685817393 6.000000000000000
8.544989097442885 -13.273892716379798 -1.121004311563818 6.000000000000000
8.551257162851755 -13.334950860317578 -1.174517981563919 7.000000000000000
8.530414226612805 -13.291282395072152 -1.265970774195572 6.000000000000000
3.033326788557904 -4.734116507076020 -0.472898641311205 0.000000000000000
8.531273018250207 -13.306648566238193 -1.366878563960636 6.000000000000000
8.520392143843768 -13.278948563256318 -1.460292970765992 10.000000000000000
3.586043095458166 -5.591061462544126 -0.630509784562619 1.000000000000000
2.829007032949973 -4.397914960795216 -0.607103369044235 0.000000000000000
2.741259747099264 -4.275473316233050 -0.699840600112669 0.000000000000000
2.615236954259771 -4.079091653720177 -0.750505023965030 2.000000000000000
2.474341215426651 -3.851087990237868 -0.784499708815360 4.000000000000000
2.372959281929897 -3.694801068578691 -0.830143550003852 5.000000000000000
8.037221089686327 -12.661982481905589 3.355621188500346 16.000000000000000
8.510715909933960 -13.330792895618751 2.626212502420011 8.000000000000000
10.791410604035397 -16.950983727688659 0.970601497623684 0.000000000000000
9.083345368580993 -14.237166701343572 0.484169721748146 0.000000000000000
8.815049967889475 -13.797340138199496 -0.219568477172277 0.000000000000000
8.538994948371666 -13.445936803329820 -0.495740726244419 0.000000000000000
8.505421415450286 -13.328777379500673 -0.538213224240328 4.000000000000000
8.508292681056071 -13.384872009608397 -0.589896890822664 5.000000000000000
8.507044760156102 -13.322498504538315 -0.635009068594097 8.000000000000000
8.485218513668295 -13.336846237331908 -0.682869402721070 8.000000000000000
8.529165504170939 -13.349789007554893 -0.734972019825098 10.000000000000000
8.491812476375946 -13.362067513761566 -0.783544824171503 10.000000000000000
3.268113706503230 -5.120904214599808 -0.301703222277004 3.000000000000000
8.529522366658460 -13.364437155663586 -0.834703638607225 8.000000000000000
8.529824558986734 -13.415997366791029 -0.886719858725453 10.000000000000000
8.536433583091140 -13.366732241170052 -0.932645142744102 10.000000000000000
8.530491232015853 -13.407809670965388 -0.983248151476152 8.000000000000000
3.080000161468478 -4.821937777739635 -0.374038047181669 0.000000000000000
8.517701233405624 -13.400819718434414 -1.081297511277133 6.000000000000000
8.542727045099628 -13.381561676335584 -1.130566598418610 7.000000000000000
8.540497752442255 -13.429027536023629 -1.182720420677952 7.000000000000000
8.552852843272783 -13.389164407277567 -1.229536014969586 9.000000000000000
8.536216214616077 -13.412509974632592 -1.278050437302825 10.000000000000000
3.013808657788191 -4.744092563218068 -0.473066302146551 0.000000000000000
8.522520056046151 -13.404004448708971 -1.376414109833488 11.000000000000000
8.538926567599260 -13.370358673566303 -1.423768712249959 10.000000000000000
8.497505724183952 -13.352340761625490 -1.466960790655229 11.000000000000000
2.854527701611328 -4.490821852399176 -0.535212889035072 0.000000000000000
2.730667264943481 -4.298284751786209 -0.703272211862497 0.000000000000000
2.596170954154227 -4.084178518147393 -0.749762676630820 2.000000000000000
2.454289582757898 -3.852247986807640 -0.782731039391689 4.000000000000000
2.357044118470328 -3.702496243437388 -0.830274058320049 5.000000000000000
8.404481210584240 -13.264421839720521 2.611533730040267 46.000000000000000
8.478050102315132 -13.373304153696306 1.752750097697522 10.000000000000000
11.292273474198888 -17.923379141420206 0.993910236051319 2.000000000000000
10.776077627414272 -16.996609815551924 0.664306595809709 0.000000000000000
8.533788621544510 -13.550666059955974 -0.501555673219385 0.000000000000000
8.500790953071547 -13.433282869728002 -0.544290563138788 6.000000000000000
8.509477666272751 -13.499726431668815 -0.597030620433098 4.000000000000000
8.498414891329659 -13.420096360839416 -0.641047802015043 15.000000000000000
8.478486540832352 -13.437841185934053 -0.689427873889067 14.000000000000000
3.405612654053581 -5.370292678762176 -0.294985345442722 3.000000000000000
3.298652832841848 -5.200510657495574 -0.292653066962341 2.000000000000000
8.492939547770609 -13.476823941385474 -0.791846532361379 11.000000000000000
8.518586477118131 -13.458646629876309 -0.841356284536222 11.000000000000000
8.518622336430697 -13.510239863442100 -0.893593308040367 11.000000000000000
8.533710480263101 -13.474598065093346 -0.941137928033470 8.000000000000000
8.523445166791394 -13.508852065292904 -0.991284998701278 5.000000000000000
3.060180753926684 -4.832076342820635 -0.374208365635266 0.000000000000000
8.522673759639829 -13.522376309270408 -1.092119430194536 4.000000000000000
8.539811993958997 -13.489386102461719 -1.140131533144228 5.000000000000000
8.537307348554540 -13.536880457444711 -1.192550477851462 5.000000000000000
8.541814899547736 -13.483281626354348 -1.237967040250085 6.000000000000000
8.527041359333900 -13.510022279437328 -1.287125464009288 9.000000000000000
2.983076295422875 -4.733104539114525 -0.469538381133693 0.000000000000000
8.521295754024159 -13.515144080878533 -1.387763297045862 11.000000000000000
8.527822242404495 -13.464361966834119 -1.433080068253375 10.000000000000000
8.462036022718525 -13.405250654901597 -1.470771618989802 11.000000000000000
3.556365955242295 -5.640757165892058 -0.768123354537878 0.000000000000000
2.580706046519505 -4.096108702567136 -0.750792567511498 2.000000000000000
2.439612711182254 -3.863676504924737 -0.783818749154170 5.000000000000000
2.342866564280744 -3.713572908635285 -0.831420980008091 5.000000000000000
7.994234479282390 -12.696172082804297 3.356593983897314 16.000000000000000
8.407843712253106 -13.381914386864764 2.624244455133271 30.000000000000000
8.511775968962720 -13.542992447051692 1.764514512390992 6.000000000000000
19.261407834193090 -30.676670005018295 1.978250945101816 6.000000000000000
10.658868040226418 -17.011039061241917 0.969039464112617 0.000000000000000
10.707606106678428 -17.023265781492945 0.663613898345861 0.000000000000000
22.494891791287476 -35.790777835610399 1.332684806932551 13.000000000000000
10.733690875250128 -17.052179873991491 0.540593200777185 0.000000000000000
10.681651138296491 -17.028131730836257 0.478042832042238 0.000000000000000
22.412407294558768 -35.849466452229848 0.951059852664789 16.000000000000000
22.426994174830956 -35.830437147508938 0.696992859643000 16.000000000000000
22.504587450107902 -35.793919859755015 0.572189308730902 14.000000000000000
22.366414846262785 -35.761565879982257 0.190995361288706 15.000000000000000
22.445857195764034 -35.726789301042345 0.065603732058244 13.000000000000000
22.363997443707088 -35.714866748944729 -0.060995451083061 6.000000000000000
22.569052032106928 -36.008474237509510 -0.320142908276449 3.000000000000000
22.713189053758320 -36.077875119642783 -0.451537746192682 4.000000000000000
8.503649499588800 -13.551676662288358 -0.551388821445938 5.000000000000000
8.511984057991610 -13.618207762222649 -0.604433929468548 4.000000000000000
8.495296512603929 -13.528109355124631 -0.647922876083594 13.000000000000000
8.475200009363205 -13.545834402110840 -0.696567889513188 9.000000000000000
3.378160145566679 -5.371102433412876 -0.293811858356523 3.000000000000000
3.256719205775207 -5.172983623167031 -0.287708319961391 2.000000000000000
8.519259272448092 -13.573547125133240 -0.849960769740234 7.000000000000000
8.521018967437431 -13.628625747340845 -0.902825122766598 8.000000000000000
8.526274831148468 -13.575758141703322 -0.948936331148459 8.000000000000000
8.521863518455323 -13.620312456644720 -1.000403895580539 8.000000000000000
3.034722584429780 -4.831679391209413 -0.372736860316232 0.000000000000000
8.532192423278588 -13.590509308151391 -1.148908847518396 4.000000000000000
8.537502141371698 -13.651748249058917 -1.203196571889752 5.000000000000000
8.540349754870167 -13.594611342446912 -1.248492449182633 7.000000000000000
8.525367213206678 -13.621344250747523 -1.297921815915337 9.000000000000000
8.538333954253257 -13.580986457716454 -1.345604288000305 10.000000000000000
8.519393732998923 -13.626448090722777 -1.399115280279470 11.000000000000000
8.524247892490466 -13.572140080712677 -1.444252811892792 11.000000000000000
8.434361470728676 -13.471779183174812 -1.476486727844591 7.000000000000000
2.798806794368951 -4.474616867313017 -0.528677947361675 0.000000000000000
2.755553640773558 -4.390781649846261 -0.600153083479369 0.000000000000000
2.672882566909086 -4.274447775752300 -0.693729687087263 0.000000000000000
2.421335312473394 -3.868142228303537 -0.783000367391780 4.000000000000000
2.328636427379523 -3.724610758019342 -0.832567294379501 5.000000000000000
7.961052107670653 -12.747213104956804 3.361128845186405 16.000000000000000
8.480739441261633 -13.619397301060037 2.654694114235573 25.000000000000000
8.514124945153041 -13.661496260090864 1.771795356056706 8.000000000000000
10.584057910473028 -17.032583297747387 1.335035109063274 0.000000000000000
10.570053147407693 -17.002843829832564 0.967303361729583 0.000000000000000
10.632943936595074 -17.039346525295478 0.662839710627519 0.000000000000000
10.591471121610885 -17.032524940033788 0.600226379309083 0.000000000000000
10.620067844814523 -17.003056107409655 0.539865690058462 0.000000000000000
10.590704935479273 -17.016592541764286 0.477540183295255 0.000000000000000
22.246911588782027 -35.865341288732829 0.949064820321128 15.000000000000000
22.308948804878145 -35.801982836369376 0.824216774052028 13.000000000000000
22.238722003188727 -35.808773403142020 0.695235651861870 15.000000000000000
22.186660893392805 -35.753340041712470 0.190489146384198 16.000000000000000
22.297267480083171 -35.770197924851900 0.064755024584866 16.000000000000000
22.200982626896309 -35.734028229233012 -0.061344394598971 7.000000000000000
22.427164408934562 -35.941899201949887 -0.191855493781958 3.000000000000000
11.258592856344972 -18.145590467444137 -0.174713291207752 1.000000000000000
22.452910787335469 -35.941368052214202 -0.447197890905446 4.000000000000000
22.303976425740650 -35.934283446435572 -0.570948961814594 10.000000000000000
8.999255878601817 -14.462567519516899 -0.249781789225277 0.000000000000000
9.060268987087046 -14.499393799101473 -0.305681458810455 0.000000000000000
11.265683691020703 -18.150980007197184 -0.566559835172699 4.000000000000000
8.538066391454738 -13.672742527349453 -0.508586080349762 0.000000000000000
8.503761553618689 -13.666800851894404 -0.558235112019087 6.000000000000000
18.473930408387290 -29.677459908296456 -1.335684077767164 8.000000000000000
8.497580594332060 -13.646598243490880 -0.655635284474665 12.000000000000000
3.335682152152100 -5.343795539983461 -0.289002394013425 3.000000000000000
3.231904163451849 -5.176752289476287 -0.286956429721650 2.000000000000000
8.487299784271237 -13.581447986701265 -0.799211996456721 8.000000000000000
8.521243914971704 -13.692046957855602 -0.858892933472112 9.000000000000000
8.528317190949174 -13.694222637987945 -0.958479901051331 10.000000000000000
8.517590475164805 -13.728497145522216 -1.009165477923955 9.000000000000000
3.005590907992810 -4.824171323081334 -0.370169404825480 0.000000000000000
8.522858414100220 -13.637276472002508 -1.102178444175072 5.000000000000000
8.523965324313231 -13.691735026591955 -1.157687764664036 10.000000000000000
8.528134952983971 -13.688952395066996 -1.256927355836571 9.000000000000000
8.523014190975312 -13.732828463976301 -1.308720931966856 6.000000000000000
2.961707779836495 -4.739431391772214 -0.469087640531496 0.000000000000000
8.497910179544411 -13.642352099287207 -1.450312117287766 11.000000000000000
2.561601328858569 -4.101062332836143 -0.750048124413837 2.000000000000000
7.921673617278112 -12.787977184179434 3.363528968100641 15.000000000000000
8.464283301024233 -13.706659261758796 2.662832876226750 23.000000000000000
8.513739201633594 -13.776743419551254 1.778774650876962 12.000000000000000
10.491314664677104 -17.017169833208300 1.332070685501714 0.000000000000000
10.493578834853498 -17.014939767872285 0.966097011023618 0.000000000000000
11.253504994400721 -18.166949689808899 0.736232650907978 2.000000000000000
22.113556232543299 -35.861379398766339 1.198031744750045 22.000000000000000
11.261622732398987 -18.231117544130608 0.540925355875929 1.000000000000000
22.071502652926458 -35.820511361927288 0.693659853990747 16.000000000000000
8.711119523766627 -14.144588071126746 0.227369541444153 0.000000000000000
11.256849883918610 -18.216513934479888 0.149083806897869 0.000000000000000
8.699230987342165 -14.075745158391136 0.076235778751881 0.000000000000000
10.270250141744256 -16.631759911644743 0.000682000646110 0.000000000000000
11.272457176123240 -18.186008639230081 -0.045527173321330 0.000000000000000
11.230341729839026 -18.181610519713171 -0.110778629875988 1.000000000000000
22.185317214430732 -35.955105565103580 -0.317959993005076 3.000000000000000
11.236342276032946 -18.175293820227225 -0.241396650524733 4.000000000000000
8.756553960453502 -14.168789342154200 -0.234102598656107 0.000000000000000
8.629703442273028 -14.004891560655595 -0.277032922692157 3.000000000000000
8.671365672059492 -14.011804173009560 -0.328406523869505 2.000000000000000
11.270534882160824 -18.176048567178299 -0.436530544958308 0.000000000000000
11.232665494548485 -18.162754462604102 -0.632063497896341 8.000000000000000
8.654217802861638 -13.988171791996034 -0.529213202985509 0.000000000000000
8.499672823489391 -13.712755137444416 -0.609975297375281 5.000000000000000
18.414555785093313 -29.819942708967712 -1.341497321068167 189.000000000000000
8.491106333185227 -13.751482535756496 -0.662237445343612 9.000000000000000
3.297172845104942 -5.323281864999650 -0.285098131753753 3.000000000000000
3.199641361673134 -5.166370443112054 -0.284337187483893 2.000000000000000
8.483037159847557 -13.689650997472180 -0.806892983471370 9.000000000000000
8.516488220743012 -13.800414013599093 -0.866853005991276 5.000000000000000
8.514645315734290 -13.733436017018738 -0.910713119926957 9.000000000000000
8.527625829565002 -13.809432486304237 -0.967677943889730 9.000000000000000
2.989444276844034 -4.841084202818276 -0.371430335122686 1.000000000000000
8.512305901649690 -13.735157455182273 -1.110323858863349 10.000000000000000
8.521133945216739 -13.803419138716196 -1.167655216750643 8.000000000000000
8.528962449086043 -13.753049237224429 -1.212218626389759 10.000000000000000
8.531377794642319 -13.810882836602099 -1.268714018846685 8.000000000000000
2.932973670919462 -4.731682648390052 -0.466171580316933 1.000000000000000
8.508798943808769 -13.724183872978312 -1.408657367773241 6.000000000000000
8.487164771269249 -13.740045557790133 -1.460093157409522 6.000000000000000
2.649554953334418 -4.272753978393041 -0.691416192053482 0.000000000000000
2.540709777177870 -4.102467793971968 -0.748415564323953 2.000000000000000
2.408336336658969 -3.882930715497213 -0.785039243020678 4.000000000000000
2.316095912080978 -3.739058902596295 -0.834730482910693 5.000000000000000
7.878171799761553 -12.821811136223186 3.364507181952276 15.000000000000000
8.473101793528624 -13.838655752798866 2.677557613106215 23.000000000000000
8.510653525573781 -13.888709334004297 1.785452795924727 13.000000000000000
8.638997360001843 -14.095640689285961 0.889726071402375 4.000000000000000
8.643031321380093 -14.108572948668741 0.686381356090408 1.000000000000000
11.223539837775295 -18.267647940007262 0.736319188753684 3.000000000000000
8.634707196028936 -14.072183828016641 0.482328135334139 0.000000000000000
11.210178990990086 -18.227438561235722 0.605142561087832 5.000000000000000
8.623390602302889 -14.069513690636628 0.381133658644945 4.000000000000000
11.179098728135576 -18.225498833767134 0.409741430718650 5.000000000000000
11.198264046216941 -18.218097020025560 0.344588815599565 4.000000000000000
11.176984297900121 -18.249047864319937 0.279217367949785 5.000000000000000
11.203973376729367 -18.210398498672554 0.214509060878437 3.000000000000000
11.166021015746480 -18.213728312179615 0.149243173873200 6.000000000000000
8.617058390295261 -14.053514212390311 0.077271391039784 9.000000000000000
8.575274331732050 -14.035143039157454 0.027010477157455 15.000000000000000
8.603353411140581 -14.018749652303292 -0.023062815627331 12.000000000000000
11.167890858569068 -18.227019860966013 -0.111637620909733 1.000000000000000
11.200354225236968 -18.197999763946058 -0.175847962075189 2.000000000000000
11.169905390726418 -18.213841241311940 -0.242030248458964 0.000000000000000
8.610034218108179 -14.036087871707265 -0.226496546647037 11.000000000000000
8.567818527782538 -14.017055698219853 -0.276596555392979 15.000000000000000
8.597427594110357 -14.003393003698951 -0.326738003875740 14.000000000000000
8.568834971039367 -14.008462760389536 -0.377325916997697 19.000000000000000
8.602263891939240 -14.001083922463566 -0.427546834587242 11.000000000000000
22.067472844283564 -35.870274572809855 -1.202210523350215 3.000000000000000
21.944590725191603 -35.904318585840564 -1.325667439080121 2.000000000000000
8.590339732010134 -13.996976134157959 -0.528242269276836 13.000000000000000
8.507850351063384 -13.907982836102279 -0.572702458272375 5.000000000000000
8.502805464041437 -13.835019717640028 -0.617650790722594 7.000000000000000
8.489984104294773 -13.866864148367796 -0.669677294782798 7.000000000000000
3.266274942851722 -5.316628082669578 -0.283008692560685 3.000000000000000
3.171191131406371 -5.162884700279264 -0.282648761015867 2.000000000000000
8.470128272519274 -13.784174872436100 -0.813322662445406 9.000000000000000
8.509082751638186 -13.905470664908483 -0.874490163898566 4.000000000000000
8.509637034718919 -13.841825884038771 -0.918940249087688 5.000000000000000
8.518256575187099 -13.911011500123154 -0.975483535785065 10.000000000000000
8.508661218402933 -13.829929371809165 -1.017208964972014 10.000000000000000
2.953077364127981 -4.819296721150323 -0.366670042170634 1.000000000000000
8.513136138677636 -13.853797983903464 -1.120771152697800 8.000000000000000
8.523588655119417 -13.925603042140436 -1.178811698318504 9.000000000000000
8.527797107315973 -13.868236964068267 -1.222870176326210 8.000000000000000
8.519936533978303 -13.908901195033607 -1.277571848164959 9.000000000000000
8.517984343092719 -13.841025464999047 -1.319092489147518 5.000000000000000
2.907978855582382 -4.730811731054576 -0.464485633006929 1.000000000000000
8.509568697379580 -13.842638925144490 -1.420920389871396 3.000000000000000
2.777813748461711 -4.524415724264568 -0.535152943778643 0.000000000000000
3.391471727925651 -5.548243948093180 -0.741512052905311 0.000000000000000
2.629840385648516 -4.277922953294514 -0.690741975644004 0.000000000000000
2.523371569104180 -4.110746161647203 -0.748555717832941 2.000000000000000
2.391761440813226 -3.890748295427521 -0.785171883510438 5.000000000000000
2.305208778802614 -3.756935293832107 -0.837910840296539 5.000000000000000
7.840389093915600 -12.865757191712749 3.367622606093348 17.000000000000000
8.481098991083575 -13.970889336759146 2.692278360166887 27.000000000000000
8.522753352283704 -14.028517083748238 1.794513093069720 15.000000000000000
8.588846413309394 -14.128616481857049 0.889326780892894 15.000000000000000
8.574884998735552 -14.110330254990458 0.685577688791483 12.000000000000000
10.399009199268216 -17.068454203955952 0.660405589369299 0.000000000000000
8.566718772504833 -14.073931178797533 0.481902422729864 14.000000000000000
11.163737230643456 -18.300448356804289 0.604673459940481 5.000000000000000
11.216755680681050 -18.460318834785181 0.539859624348505 3.000000000000000
8.567294456443420 -14.092025380988431 0.380710813491267 13.000000000000000
8.598008140460466 -14.079658094103030 0.330371681171421 8.000000000000000
8.564590203662060 -14.075855244740062 0.279574402248290 18.000000000000000
11.145480421996549 -18.262652117065890 0.213659698151843 0.000000000000000
8.543639118853982 -14.083228140273130 0.126960851384084 8.000000000000000
8.555034462548948 -14.065599430860640 0.077295398700407 12.000000000000000
21.771574138164244 -35.762803459814727 0.063915624777082 17.000000000000000
8.567358523284080 -14.075867764208047 -0.024549800860020 8.000000000000000
8.541130618212541 -14.084830930647639 -0.075923729055589 6.000000000000000
8.551221430924091 -14.036900643088675 -0.124378290996288 16.000000000000000
8.562945426927888 -14.111854553587939 -0.178620599879506 3.000000000000000
8.559987346713049 -14.068959334528094 -0.227153228054877 10.000000000000000
21.877944130895244 -35.929085883352784 -0.695536477918945 8.000000000000000
8.557481992059888 -14.053539539509996 -0.328398735898042 6.000000000000000
8.542749446604516 -14.082773502764804 -0.380512859446577 1.000000000000000
8.550419197277364 -14.030461645250579 -0.428031178432654 13.000000000000000
21.894138748885386 -35.871012091535484 -1.199931048983558 3.000000000000000
8.563660424697606 -14.108033871417993 -0.483687745619738 1.000000000000000
8.564256124003911 -14.071331685349655 -0.531883953376375 7.000000000000000
8.499861263673774 -14.013265756725671 -0.578793066418214 5.000000000000000
8.505182778058073 -13.957482464000680 -0.625329638703645 7.000000000000000
8.488154299544931 -13.982398723169348 -0.677119594949211 7.000000000000000
3.233614652905835 -5.306296138813089 -0.280462136266896 2.000000000000000
3.092854736226884 -5.089555052052511 -0.289868697417263 3.000000000000000
8.470553794326683 -13.903012822787478 -0.821948442500124 5.000000000000000
8.508961297983825 -14.024495145644803 -0.883431430214867 7.000000000000000
8.505956927329924 -13.953813075966064 -0.927506801824758 5.000000000000000
8.514219415539225 -14.023059258324189 -0.984337517591469 13.000000000000000
8.505085260841643 -13.941840237220472 -1.026335567716341 11.000000000000000
2.935077190486598 -4.832531268188305 -0.367381060694589 1.000000000000000
8.503323592214389 -13.955375056749281 -1.129304316076907 11.000000000000000
8.505517735789850 -14.013435015325788 -1.186015832264327 14.000000000000000
8.517991268327313 -13.969795309482194 -1.231896669542222 11.000000000000000
8.515821714224858 -14.020806819958356 -1.288106961604204 8.000000000000000
8.506343605356735 -13.939032379871398 -1.328176055442643 9.000000000000000
8.512244928128823 -14.003402489523742 -1.386878703589397 6.000000000000000
8.485856596161218 -13.919939850045839 -1.427746350345179 7.000000000000000
2.751826883172389 -4.519485551068961 -0.532565428110467 0.000000000000000
2.613666046602350 -4.290001443051416 -0.691707786903064 0.000000000000000
2.504247112139623 -4.115480996578544 -0.747807820753139 2.000000000000000
2.373420602965442 -3.895033041348039 -0.784350650763622 4.000000000000000
2.295938663838344 -3.778257629626953 -0.842108657268880 5.000000000000000
7.796565166757687 -12.899334226459136 3.368604793368617 22.000000000000000
8.470638866548413 -14.072303558664975 2.702436923845468 25.000000000000000
8.516235444806698 -14.137377570002917 1.800887093647365 15.000000000000000
8.548455937108987 -14.178802474737376 0.889364120006023 2.000000000000000
8.528569134064005 -14.150045251111175 0.685214008332684 4.000000000000000
8.549727855123061 -14.110015345851231 0.533072366320799 15.000000000000000
8.528535257859298 -14.127510289618094 0.481366253196702 8.000000000000000
11.179012314839147 -18.480697346208547 0.604707227984207 2.000000000000000
8.538820528554179 -14.163007161547894 0.379854295757419 2.000000000000000
8.549838919045236 -14.115967336265195 0.329802103473293 11.000000000000000
8.522377877122283 -14.122480017569300 0.278818508141307 4.000000000000000
8.550741588448796 -14.106705465473063 0.228254706185763 10.000000000000000
8.539004026025099 -14.140798605282979 0.177066251508376 4.000000000000000
21.631574363214632 -35.744836542500245 0.314327695813244 15.000000000000000
8.554312393949182 -14.185184053773723 0.074166022392072 1.000000000000000
8.541131475326278 -14.095669945071759 0.025504948900774 7.000000000000000
8.542938769604541 -14.153759006420334 -0.026788553642923 0.000000000000000
8.530957636160629 -14.121652118130500 -0.127245078917733 2.000000000000000
8.510745708955492 -14.141094634674991 -0.179103009069376 1.000000000000000
8.541431824702444 -14.157237692896611 -0.230567694211243 0.000000000000000
8.531731458678980 -14.074064207237452 -0.278554440219657 3.000000000000000
8.537066611974875 -14.138299723035040 -0.332020644191079 1.000000000000000
8.540041329564785 -14.132504294694318 -0.433128253104934 0.000000000000000
8.511457296643963 -14.137276103854720 -0.484170190384555 1.000000000000000
8.535778629998127 -14.142215671439077 -0.535282656610251 1.000000000000000
21.590089725156453 -35.846506554847345 -1.571305436407224 2.000000000000000
8.492968266535941 -14.055868204711716 -0.631144216845441 10.000000000000000
8.481674149999272 -14.091175790070707 -0.684007732090700 8.000000000000000
3.202895982221370 -5.299356190849785 -0.278368121590806 2.000000000000000
3.062987285384005 -5.082111206909648 -0.287649984009376 2.000000000000000
8.468274472701198 -14.018565743534500 -0.830263734158502 6.000000000000000
8.501593346029676 -14.065952632813921 -0.936075963741673 7.000000000000000
8.499654422394290 -14.117951832205879 -0.991449171562282 4.000000000000000
8.498850772992769 -14.050444531916211 -1.035104358289001 16.000000000000000
2.907987648970855 -4.828069933064128 -0.365353474834830 1.000000000000000
8.498811800005603 -14.067441448544356 -1.138990364299280 13.000000000000000
8.504617309197894 -14.132474218849980 -1.196782053017609 2.000000000000000
8.505603420888519 -14.068007299833614 -1.240517985991870 10.000000000000000
8.511024059642043 -14.132878579281861 -1.298645076353059 0.000000000000000
8.487279096767695 -14.042144246060566 -1.440468134612405 6.000000000000000
2.740182204719571 -4.542552899141516 -0.535459124363391 0.000000000000000
2.682024833660277 -4.426499313323720 -0.600756120600424 0.000000000000000
2.592150560264809 -4.291541093343401 -0.690210796603952 0.000000000000000
2.483373270861972 -4.116653874631105 -0.746171570906934 2.000000000000000
2.355075283371455 -3.899247699835612 -0.783528311282350 5.000000000000000
2.284837735227988 -3.796099384135392 -0.845288530956869 5.000000000000000
7.758389416006244 -12.943046675104018 3.371723953730756 16.000000000000000
8.503179813005806 -14.235932633497294 1.806365581535917 16.000000000000000
8.523541263099073 -14.256733167617314 0.890096907361508 1.000000000000000
8.507612678095199 -14.234914044222764 0.685365523206224 1.000000000000000
8.527140784283501 -14.191396325284432 0.532654275406313 0.000000000000000
8.503860294977963 -14.205377113261253 0.480776844876203 1.000000000000000
8.534910839102441 -14.193766148092886 0.430584317319789 1.000000000000000
8.509951252144225 -14.233971675382502 0.378997935668746 1.000000000000000
8.523209242204272 -14.190400285318264 0.328761811406984 0.000000000000000
8.503544170283327 -14.210765704497538 0.277406233502347 1.000000000000000
8.522230589786270 -14.177643185623801 0.226973641297014 1.000000000000000
8.496546454720930 -14.187359979864119 0.176193122523365 1.000000000000000
8.540959024530881 -14.199316641328794 0.124221401467454 1.000000000000000
8.501770595244931 -14.214393957952337 0.073684684538881 0.000000000000000
8.516525550592776 -14.173531177495452 0.023431314362928 0.000000000000000
8.522543079294795 -14.173094773885001 -0.078741588166338 1.000000000000000
8.494453534235635 -14.178611592184978 -0.128919108772848 1.000000000000000
8.487006036860414 -14.182922125296061 -0.230875651559336 0.000000000000000
8.517028033432318 -14.169234988987434 -0.282541793785045 1.000000000000000
21.464490218039561 -35.895610978516117 -1.068023554472710 3.000000000000000
21.544208107324721 -35.863303654162166 -1.195014062981324 2.000000000000000
21.500789310225748 -35.862523858191224 -1.445444834549573 2.000000000000000
8.495175069229431 -14.125616048181683 -0.585396212329314 5.000000000000000
8.482129630440618 -14.157806479064661 -0.637226933876180 4.000000000000000
3.388577747387720 -5.660881433330864 -0.279552374598044 1.000000000000000
3.174082401597951 -5.295809618513744 -0.276726680625722 2.000000000000000
3.038634207367590 -5.085132370680032 -0.286863500495812 2.000000000000000
8.469208073687495 -14.141226152540519 -0.839209141777317 9.000000000000000
8.492366278293442 -14.115958800619758 -0.889770962817245 6.000000000000000
8.465149632561436 -14.122716366793036 -0.939251824225120 0.000000000000000
8.724531693396786 -14.583191038414324 -1.508080032864478 11.000000000000000
2.701820431252378 -4.512807539528925 -0.528070469722967 0.000000000000000
3.355773402093961 -5.588117934017699 -0.745313099944731 0.000000000000000
2.575900694498610 -4.303500235279035 -0.691174743297949 0.000000000000000
2.469442625375816 -4.131722273988590 -0.748083178129713 2.000000000000000
2.341863142106494 -3.913853200568624 -0.785564357395062 6.000000000000000
7.718081665051762 -12.983238175522454 3.374132870982150 15.000000000000000
8.457623235650923 -14.170350728842044 2.712087702431996 23.000000000000000
8.490343492072300 -14.259577743125949 0.634618836493131 1.000000000000000
8.498200492491218 -14.262343167564367 0.532223347449707 1.000000000000000
8.478529071321709 -14.215939360685192 0.430142418088443 0.000000000000000
8.474601462783220 -14.226475286363808 0.328195811715782 0.000000000000000
8.495286211087498 -14.252048561615251 0.225625993494554 0.000000000000000
21.289259047919749 -35.745194461763845 0.312705084484832 15.000000000000000
21.317021913412205 -35.741634745800994 0.187778808576199 15.000000000000000
21.236411438909361 -35.727667932392542 0.063444261283224 12.000000000000000
3.356733181278615 -5.654447304704394 -0.277582807317102 2.000000000000000
3.139904014872898 -5.281520824369004 -0.273718531951400 2.000000000000000
3.008902588788859 -5.077436132855468 -0.284640755630192 2.000000000000000
2.888135299848390 -4.837626420205744 -0.365514585814815 1.000000000000000
9.934025525470272 -16.699153406815576 -1.665294114625251 13.000000000000000
9.571544904350183 -16.120976374052098 -1.651165136665502 11.000000000000000
2.681297161503672 -4.518120127217234 -0.527534327600685 0.000000000000000
2.623994033002095 -4.401775883209481 -0.592144682757110 0.000000000000000
2.549172388666960 -4.294358445011049 -0.687212658695285 0.000000000000000
2.326873278852523 -3.924913084560472 -0.786646363830487 5.000000000000000
2.282103281779113 -3.831291259859899 -0.853557556232265 5.000000000000000
7.675677790859224 -13.019871658608267 3.375832293975674 15.000000000000000
8.442087962794993 -14.265039634911881 2.721230213449481 23.000000000000000
8.483695134332047 -14.324149723123954 1.810948746232969 9.000000000000000
3.332225701587271 -5.662026287865316 -0.277337836510772 3.000000000000000
3.113044562719286 -5.281249052451482 -0.272527776636749 2.000000000000000
2.853999252401759 -4.818797882083111 -0.361292716276181 2.000000000000000
12.687755022357537 -21.566609341018264 -1.814352636235099 9.000000000000000
11.807172127676875 -20.045193650675177 -1.798014011230203 9.000000000000000
10.883525920849262 -18.479644450018448 -1.690017739128310 2.000000000000000
10.361742221814033 -17.536891328659266 -1.707447137284964 8.000000000000000
9.968151955901574 -16.903033628267746 -1.686950901243427 10.000000000000000
9.605495606771070 -16.320188829781625 -1.672953471937877 9.000000000000000
2.657270652112762 -4.516290783471426 -0.525625603017613 0.000000000000000
2.650944002886026 -4.501932561126651 -0.611590707234448 0.000000000000000
2.531159986318376 -4.302665264754399 -0.687353462824302 0.000000000000000
2.451995249270905 -4.139751693713936 -0.748219428196482 2.000000000000000
2.272420966821406 -3.852603652036457 -0.857755339090181 5.000000000000000
7.633108525375565 -13.056376806648434 3.377533699459062 14.000000000000000
8.429837902910055 -14.366742898547052 2.731383685087771 21.000000000000000
8.438540294676610 -14.367067082344457 1.811661523357557 46.000000000000000
3.366727945512144 -5.757170400071942 -0.267667120974262 0.000000000000000
3.304100034267310 -5.662422756508775 -0.276227767835181 5.000000000000000
3.084438097385426 -5.277313469912190 -0.270880127385998 2.000000000000000
2.986396781299688 -5.083795757038072 -0.284329307714119 2.000000000000000
11.747896842130586 -20.009035271475948 -1.156803947421960 7.000000000000000
11.704149911710712 -20.005737071083590 -1.224390810640744 15.000000000000000
11.762382313200840 -20.014416296258222 -1.299049311986129 0.000000000000000
11.911000937885948 -20.311648257184650 -1.468379046337949 1.000000000000000
2.834176071275012 -4.828165974291995 -0.361450839774673 2.000000000000000
12.977132448529701 -22.182841052010190 -1.800278339819646 3.000000000000000
12.168829231818593 -20.727285466922318 -1.800495609351266 10.000000000000000
11.767136177399918 -20.144769018639320 -1.805206261383329 11.000000000000000
10.815899500703232 -18.516952151419609 -1.690631637369788 2.000000000000000
10.790586583473438 -18.383747316447472 -1.741253247766878 9.000000000000000
10.002904934617778 -17.110837458355526 -1.709045842585002 8.000000000000000
9.599551899063750 -16.450356479211059 -1.685893772536841 8.000000000000000
2.588931708151160 -4.422375321797748 -0.593176191332964 0.000000000000000
2.432811356806720 -4.144194640695442 -0.747466961210592 2.000000000000000
2.315206724504351 -3.942942553606230 -0.789634627763874 5.000000000000000
2.269289502558668 -3.887864105475980 -0.866025532898609 5.000000000000000
7.592256673410909 -13.096209925881698 3.379948128899680 14.000000000000000
8.527823215969057 -14.670225807916879 2.770885268422353 10.000000000000000
8.393185388723671 -14.409853493297883 1.812376314217388 37.000000000000000
19.403902972729753 -33.498072042703733 -0.724105890090582 44.000000000000000
16.943667990208670 -29.133556537014247 -1.177516248939042 10.000000000000000
3.341859329748780 -5.764772571362478 -0.267433859592780 1.000000000000000
16.987060395157574 -29.176902979711915 -1.383584491981898 26.000000000000000
3.055893351546821 -5.273237149181302 -0.269230236919688 2.000000000000000
16.948874608257086 -29.166903032902631 -1.584639911700063 4.000000000000000
16.697532315145562 -28.825338509997145 -1.662533463538236 4.000000000000000
2.809049651686339 -4.826809396963629 -0.359964060475272 2.000000000000000
13.048275843992116 -22.498724963359155 -1.828256496596003 9.000000000000000
12.179037079223916 -20.921950178208657 -1.817583925312407 13.000000000000000
11.722675776510272 -20.237358710797437 -1.811630296005774 10.000000000000000
2.701053786972271 -4.654325860564320 -0.440917015011966 0.000000000000000
9.972826339712313 -17.204232841228936 -1.716932870948195 9.000000000000000
3.217095290387318 -5.538204884185074 -0.599526177650174 0.000000000000000
2.567037613276413 -4.423732380555940 -0.591833953060920 0.000000000000000
2.509691732374728 -4.303849945749850 -0.685850869881667 0.000000000000000
2.413622611689030 -4.148583055693969 -0.746713606823616 3.000000000000000
2.300087042720675 -3.953939384496596 -0.790715644556276 5.000000000000000
7.558697657899138 -13.149780645997419 3.385208041700990 15.000000000000000
8.494658451350578 -14.737666820921682 2.775969819924863 16.000000000000000
8.345720211148473 -14.449006481746569 1.812795698071011 43.000000000000000
15.555711830703991 -26.950207241739886 1.766667162267067 6.000000000000000
18.582428148930283 -32.347133185039056 1.337736051395763 9.000000000000000
19.521990601739901 -33.798713266788461 -0.384339486446299 5.000000000000000
19.348093612724437 -33.559465346352283 -0.609627951225406 33.000000000000000
19.324918402785482 -33.638277688324138 -0.727844080638583 16.000000000000000
19.323228318726986 -33.475371977322446 -0.840451622544158 50.000000000000000
19.274446492161431 -33.508094455615471 -0.956081326908464 40.000000000000000
19.361041771306642 -33.501605600300046 -1.074671253080518 29.000000000000000
19.359867654918215 -33.568651578175853 -1.310342600521305 33.000000000000000
16.868167952222027 -29.244232514280931 -1.181422365814445 0.000000000000000
3.325884729094716 -5.790063371617837 -0.269302718567026 2.000000000000000
13.171963763574302 -22.860962807271029 -1.138672983907797 0.000000000000000
3.030928443478088 -5.276180023768973 -0.268489235372040 2.000000000000000
16.711247579728362 -28.988434409121474 -1.569053968980619 3.000000000000000
13.120593320091244 -22.829010225524542 -1.377174028540769 0.000000000000000
13.256275111872204 -23.048507314855030 -1.556680686418094 3.000000000000000
16.614547072860574 -28.853158800829849 -2.064418627922456 11.000000000000000
2.783963644198948 -4.825346796463784 -0.358475592994042 3.000000000000000
13.385337187916615 -23.211522756665254 -1.815175247405276 0.000000000000000
13.076783117448732 -22.742202367643028 -1.848910074827242 6.000000000000000
11.700770101849665 -20.371732381926858 -1.822662650494672 13.000000000000000
11.363351825708969 -19.664763729299690 -1.817569220291451 9.000000000000000
2.673158405582408 -4.645369347126721 -0.437981623717510 0.000000000000000
9.986186251944302 -17.377852930817212 -1.734730647438274 9.000000000000000
9.608158487935253 -16.608545424157889 -1.702380170503945 7.000000000000000
3.170040611383566 -5.499326703508633 -0.591072217624569 0.000000000000000
2.536630034914381 -4.407315827843686 -0.586777370768184 0.000000000000000
2.495042951036522 -4.319071625432294 -0.687631845173236 0.000000000000000
2.397793058501716 -4.159936479463774 -0.747734487387333 3.000000000000000
2.291568438024361 -3.978931325148146 -0.795610138435915 5.000000000000000
2.255993842988877 -3.902187100678322 -0.868186969124389 5.000000000000000
7.515561818383740 -13.185917244367957 3.386915291359300 14.000000000000000
8.485652523390518 -14.850441411345578 2.787630541129006 22.000000000000000
8.296181782422737 -14.484505234646978 1.812920014874972 41.000000000000000
15.668198103653035 -27.381201233522653 1.782751719123458 2.000000000000000
18.301516323766045 -32.114059999384388 1.329334246278175 45.000000000000000
18.508572359795714 -32.331893999529029 1.224487203043972 19.000000000000000
20.434306451200865 -35.738895223023874 1.049952192721894 7.000000000000000
20.491844755074514 -35.789915162799907 0.927524206618347 42.000000000000000
20.420866442370745 -35.790179290368783 0.804133388040541 46.000000000000000
20.512691770866319 -35.782218068556034 0.679488439056244 46.000000000000000
20.427080401311475 -35.757923818312150 0.556311813924641 53.000000000000000
20.518482945030797 -35.749338263584988 0.431581848073775 49.000000000000000
20.419525364293794 -35.699870641625452 0.309043104349530 44.000000000000000
20.452570558708114 -35.707333210436396 0.185404853626954 46.000000000000000
20.384531429990609 -35.712631236446441 0.062175737377459 45.000000000000000
20.471229799491844 -35.695847322911654 -0.061206528504048 22.000000000000000
20.511399028351004 -35.896551838828422 -0.188701371064405 11.000000000000000
20.639210751584020 -35.952153713760715 -0.313765391382121 10.000000000000000
20.546682653227798 -35.914891543961879 -0.438597643523473 10.000000000000000
19.325145595968280 -33.680172253802439 -0.495348040473780 13.000000000000000
19.292101395496431 -33.741467130158505 -0.614485315463492 9.000000000000000
19.248124232871142 -33.622327931039500 -0.844713026623993 23.000000000000000
19.199122396802849 -33.654934890834042 -0.960609965647226 24.000000000000000
19.244940289514172 -33.575380212157434 -1.076090275176672 21.000000000000000
19.273477836427151 -33.575994344196879 -1.190629351914423 39.000000000000000
19.259004214840470 -33.670350960927728 -1.313286512668781 35.000000000000000
16.677549951248835 -29.148735565534011 -1.173726615072656 1.000000000000000
16.544804322448961 -29.016260994109544 -1.266771230170799 0.000000000000000
13.054363452664564 -22.843283500959490 -1.135033645983935 0.000000000000000
2.952797167451657 -5.144784030917513 -0.270939176321085 1.000000000000000
2.903085918187768 -5.070269965199532 -0.279078929056675 2.000000000000000
12.993608728078197 -22.793682357867379 -1.371495548571956 0.000000000000000
13.151788639588629 -22.970148907042422 -1.465744003330105 1.000000000000000
