# This PCD file was generated using the MATLAB® pcwrite function
# from Computer Vision Toolbox®.
# .PCD v.7 - Point Cloud Data file format
VERSION .7
FIELDS x y z intensity
SIZE 8 8 8 8
TYPE F F F F
COUNT 1 1 1 1
WIDTH 635
HEIGHT 1
VIEWPOINT 0 0 0 1 0 0 0
POINTS 635
DATA ascii
4.576319508546149 -16.361582296994033 -0.646526236378790 0.000000000000000
4.548961137978120 -16.358706738986388 -0.697607388071449 0.000000000000000
4.532062836486839 -16.158745422128916 -0.735886916368818 0.000000000000000
4.502858806612746 -16.147777494953097 -0.785105062502575 0.000000000000000
4.377240405038131 -15.749737644313230 -0.855542317908738 3.000000000000000
4.353210095415152 -15.526719624186134 -0.888263073928378 3.000000000000000
4.318619696679868 -15.491979980746249 -0.933639697437097 3.000000000000000
4.309167169224741 -15.326744065507786 -0.969308300252602 3.000000000000000
4.263448346233818 -15.249476732073212 -1.009237195783245 3.000000000000000
4.226099070785532 -15.202646585262602 -1.054282776169193 3.000000000000000
4.212594710769347 -15.127514712114792 -1.094610502920977 8.000000000000000
4.241981620779313 -15.108090097477145 -1.142847606027182 10.000000000000000
4.213986066556764 -15.095659114387193 -1.188459841119323 4.000000000000000
4.203611834788100 -15.021200449781817 -1.276315265241258 4.000000000000000
4.197116202920623 -15.088776939020457 -1.333477676297580 3.000000000000000
4.193659815288455 -15.051428122780901 -1.376666472930490 3.000000000000000
4.221650646689815 -15.027406614265328 -1.424056423525540 2.000000000000000
4.213084039241287 -15.087139622283306 -1.477756299460823 2.000000000000000
4.238545011966675 -15.177097593605135 -1.781618972586602 8.000000000000000
3.699347054518973 -13.158659040091463 -1.745399685767083 8.000000000000000
2.915833458530820 -10.381569346115647 -1.668733763107242 7.000000000000000
2.618700804178492 -9.396218224276160 -1.690934877929996 6.000000000000000
2.407062802523550 -8.581055279669457 -1.684423507988229 7.000000000000000
2.192603023691457 -7.878559323088840 -1.675042115513670 4.000000000000000
7.027012836668709 -25.355564441972753 3.915054782160098 14.000000000000000
6.567041380576201 -23.954261732739759 1.476569001213566 24.000000000000000
6.850841546435865 -24.801570513572127 0.966054139346107 24.000000000000000
6.812683203255595 -24.806407006556153 0.886485069166278 29.000000000000000
6.850961960844519 -24.740970841390347 0.809610199210813 28.000000000000000
6.859777517947728 -24.739486209864069 0.730940094805309 32.000000000000000
6.804887440060587 -24.681777947561628 0.653554718511928 28.000000000000000
6.769738621161837 -24.697196029939050 0.574943551837642 28.000000000000000
6.807149249028530 -24.630979603762821 0.498595056142489 30.000000000000000
6.784373244611583 -24.692335516245922 0.419949114979415 28.000000000000000
6.824157096105148 -24.633333858833133 0.343896016917021 30.000000000000000
6.820068156537974 -24.584245004508237 0.265867884365805 30.000000000000000
6.790978697344596 -24.621740280739221 0.188541013970437 25.000000000000000
6.757612237204782 -24.643539484385258 0.110838946759803 24.000000000000000
6.802895005945933 -24.606924535173437 0.034146110008189 26.000000000000000
6.793235690434638 -24.717172027983572 -0.045069371619887 30.000000000000000
6.844196743301911 -24.699284576202803 -0.123243118909503 32.000000000000000
6.829329797257158 -24.610306539587480 -0.197851209385927 27.000000000000000
6.797762024154586 -24.638740382990818 -0.276428225850699 28.000000000000000
6.780530671470349 -24.721100968308370 -0.356042099301784 31.000000000000000
6.773624102363601 -24.490023242361058 -0.426285959388878 27.000000000000000
6.741018304745524 -24.513961519083281 -0.503114174460426 29.000000000000000
4.729665814281482 -17.186544188582452 -0.373214296809289 4.000000000000000
6.802025282416486 -24.501048617019404 -0.657181242582901 15.000000000000000
4.605941144514822 -16.679762888464893 -0.454478660190383 2.000000000000000
4.572179240528331 -16.654183661078640 -0.505209224526867 1.000000000000000
4.522382337383909 -16.299306322081616 -0.588584232877492 0.000000000000000
4.522770712190979 -16.400490370703423 -0.648378726749726 0.000000000000000
4.453679539065816 -16.239317461091357 -0.688332122090608 0.000000000000000
4.458740301523480 -16.120373372421888 -0.732180093365432 0.000000000000000
4.454121131064191 -16.201853005348227 -0.788348816788092 0.000000000000000
4.435636900546543 -15.994038034795748 -0.825241749888372 0.000000000000000
4.309712372877453 -15.591793592961288 -0.892846750283691 3.000000000000000
4.276188047291851 -15.560797930123012 -0.938715244975511 3.000000000000000
4.263327642624095 -15.380085706000290 -0.973128135246444 3.000000000000000
4.218842506311994 -15.306514279254518 -1.013535372519776 2.000000000000000
4.173396517832320 -15.203613741663457 -1.101111673991189 3.000000000000000
4.197873056388624 -15.165002768356461 -1.147531553040696 4.000000000000000
4.180009676741056 -15.190950902640049 -1.197402285931546 3.000000000000000
4.193865968224077 -15.113714404279509 -1.239365085037293 3.000000000000000
4.169938649516519 -15.116393367063585 -1.285743592831680 3.000000000000000
4.182292444868268 -15.256987953299143 -1.351683702554799 3.000000000000000
4.171881173007007 -15.192668757747589 -1.392100547061730 3.000000000000000
4.197152034158452 -15.157109655524085 -1.438469207569768 3.000000000000000
4.204415836591742 -15.278249464517621 -1.500236603508975 4.000000000000000
4.180916056704048 -15.184026755382552 -1.780777465602368 8.000000000000000
3.645747510843123 -13.152276436792478 -1.742523646870025 8.000000000000000
2.875000266241665 -10.383966536484142 -1.667421426369632 7.000000000000000
2.584262487270666 -9.408979798086675 -1.691923340738606 7.000000000000000
2.374498223588148 -8.589291850793282 -1.684573423495455 6.000000000000000
2.162492222176639 -7.886051526519289 -1.675178853472156 5.000000000000000
7.761719814636751 -28.478367258003761 4.318866997393465 19.000000000000000
7.236916405993504 -26.482092902714719 2.569277613284414 48.000000000000000
6.813777789554671 -24.870508348432502 1.044446999908559 23.000000000000000
6.732787852616752 -24.864735472100786 0.886572603204094 34.000000000000000
6.788853076641554 -24.865120214471997 0.810361121199120 26.000000000000000
6.779136520178281 -24.794094794143561 0.730781235797380 27.000000000000000
6.736692607097949 -24.782602681657760 0.653564536557847 28.000000000000000
6.741236363870682 -24.739537440338541 0.498129257378516 28.000000000000000
6.706895903172043 -24.758302411313057 0.419374151900979 27.000000000000000
6.752118675130912 -24.718738141280987 0.343063250330144 33.000000000000000
6.768780520213682 -24.746933470652682 0.264095392131194 28.000000000000000
6.708633672901888 -24.668380947700978 0.187823944853624 27.000000000000000
6.734990312862913 -24.707720098417131 0.032267378623032 30.000000000000000
6.721772566125426 -24.806358069749020 -0.046929324033648 22.000000000000000
6.772931888823687 -24.788603602874357 -0.125308242893855 29.000000000000000
6.755269791292129 -24.687978066331755 -0.199788481048693 28.000000000000000
6.735814792393016 -24.762690325992928 -0.279970667185484 29.000000000000000
6.712040337970822 -24.821827899364905 -0.359098655191099 28.000000000000000
6.727652598285802 -24.671809204557611 -0.432596140686869 26.000000000000000
6.691671407129613 -24.684082691349012 -0.509435289119564 24.000000000000000
4.665091868246379 -17.195108668718362 -0.373126513330838 4.000000000000000
6.727286920792888 -24.574727925939865 -0.659927441624621 35.000000000000000
4.545165103129235 -16.695628934624409 -0.454765107991948 2.000000000000000
4.512501459514266 -16.673792448807465 -0.505720083084746 1.000000000000000
4.530344291347405 -16.597535087916889 -0.555090772741062 0.000000000000000
4.674092545405101 -17.117961624098239 -0.640743290148138 0.000000000000000
4.428621605151714 -16.284771941685744 -0.639769220816882 0.000000000000000
4.398890908822689 -16.131869706332825 -0.732172309944314 0.000000000000000
4.367843129479798 -16.112964223677778 -0.780621926639949 0.000000000000000
4.323730479152789 -15.780234032587908 -0.857093640298675 3.000000000000000
4.272871958204610 -15.683761839741289 -0.899752032331439 2.000000000000000
4.237338014269354 -15.644945497618586 -0.945163217511172 2.000000000000000
4.181925756846087 -15.394265610549215 -1.020765602404590 2.000000000000000
4.192732390802168 -15.301920598098580 -1.062877106757014 3.000000000000000
4.153708079326156 -15.356697951806250 -1.115412602340666 2.000000000000000
4.168526306302373 -15.279557193425278 -1.158243039384399 3.000000000000000
4.166447256082626 -15.367057948992395 -1.215026266617671 3.000000000000000
4.178876901436799 -15.282038491215156 -1.256638908806183 2.000000000000000
4.161732613898715 -15.311572397897411 -1.306522974129430 3.000000000000000
4.146170369825901 -15.322408238353832 -1.406156101686129 3.000000000000000
4.176824823083648 -15.306049662386135 -1.455241518497340 4.000000000000000
4.152470354161747 -15.308092321660842 -1.502430425726025 3.000000000000000
4.118300692822692 -15.171578129585887 -1.777170466685241 8.000000000000000
3.595223632185588 -13.157162093658387 -1.741507944760797 8.000000000000000
2.835162590000075 -10.390019279377734 -1.666853607844395 7.000000000000000
2.545924261117177 -9.406447915785002 -1.689608170806855 6.000000000000000
2.339990134458575 -8.589855674902029 -1.682937745883237 6.000000000000000
7.335845612096742 -27.244003780589303 2.624546402619914 19.000000000000000
6.919352157406910 -25.642990570281501 1.541298737960869 24.000000000000000
6.743813401796664 -24.967517128513830 1.045553438762199 29.000000000000000
6.686803872385612 -25.054417829855705 0.888592902778099 28.000000000000000
6.744229700611230 -25.058787938041977 0.811926763861652 30.000000000000000
6.689052657634572 -24.813632023631108 0.730326853503586 26.000000000000000
6.662823818961805 -24.863913334191587 0.653469117881365 23.000000000000000
6.700363579287678 -24.794064369666614 0.574706352632588 28.000000000000000
6.689840590891706 -24.905987228862021 0.497635067010215 33.000000000000000
6.665304417710405 -24.963390513288704 0.418299210614197 29.000000000000000
6.686674132829876 -24.831034411719450 0.342054214818134 26.000000000000000
6.697129070179594 -24.836067977936267 0.263036500254524 30.000000000000000
6.652324443658346 -24.815376522207707 0.185829116669256 26.000000000000000
6.692477002639642 -24.755825389768169 0.109014705437686 24.000000000000000
6.675580717651171 -24.843169281458024 0.029734987406309 25.000000000000000
6.643723371911545 -24.872129045069141 -0.048278837030044 25.000000000000000
6.693002795637719 -24.846796265836005 -0.126598428008638 30.000000000000000
6.694977397757010 -24.819581746283351 -0.203237421122754 31.000000000000000
6.660956077289924 -24.840100006080029 -0.282070473257976 28.000000000000000
6.660234885462663 -24.776240123370268 -0.436032575495890 33.000000000000000
6.629129942215587 -24.807744707935868 -0.513892077054803 36.000000000000000
4.605498995276995 -17.222785965435367 -0.373989698409479 4.000000000000000
6.660243409279079 -24.679109811900329 -0.664101388065825 31.000000000000000
4.488328754077059 -16.726752550085596 -0.455906266554701 3.000000000000000
4.451748562332424 -16.689332932516869 -0.506001443101377 1.000000000000000
4.463854999730814 -16.589945785843707 -0.553944911993088 0.000000000000000
4.455477175009290 -16.531202955362374 -0.602115413557494 1.000000000000000
4.383148014777227 -16.354133786138242 -0.643706541697412 0.000000000000000
4.413496565221419 -16.328039084513041 -0.693798930779989 0.000000000000000
4.349993570963805 -16.185645749308360 -0.735296438643683 0.000000000000000
4.311018579012021 -16.135728943707917 -0.781487366978065 0.000000000000000
4.326804022315450 -16.055270586908453 -0.828258637333390 1.000000000000000
4.269058727992777 -15.806696429766133 -0.858322293317421 3.000000000000000
4.237430349988153 -15.783390628437390 -0.907320633187104 2.000000000000000
4.193004240708153 -15.709716273111304 -0.949892818008100 2.000000000000000
4.183645483770440 -15.536538921910838 -0.985381957283237 2.000000000000000
4.156340526547274 -15.528251906696610 -1.032396493460940 2.000000000000000
4.168710561144580 -15.439702669370201 -1.075258818139557 2.000000000000000
4.167248000024986 -15.505855574128590 -1.180613003757794 3.000000000000000
4.130955385245542 -15.462330255570272 -1.223969094723053 3.000000000000000
4.146831467846555 -15.388837861460805 -1.267108512698839 3.000000000000000
4.120539678100798 -15.383658792757901 -1.313332296844282 3.000000000000000
4.142405335857243 -15.332943580648262 -1.359123311329781 3.000000000000000
4.120779979956204 -15.320424145044319 -1.455501506739574 3.000000000000000
4.100366631225221 -15.337766132211915 -1.504621753679847 3.000000000000000
4.058775832668993 -15.170398677649009 -1.775217064678710 8.000000000000000
3.542744941086411 -13.154209603560627 -1.739246764733075 8.000000000000000
2.791460934762000 -10.380691827463174 -1.663295809410752 7.000000000000000
2.305506368339929 -8.590289787003799 -1.681300095192459 6.000000000000000
2.132354738731603 -7.893435988195154 -1.675314000005721 6.000000000000000
7.906415016430715 -29.876303052610410 4.492970534001233 23.000000000000000
7.276378707234788 -27.416086838804340 2.635173058734501 35.000000000000000
6.843434533611188 -25.728787990967056 1.543284981096045 23.000000000000000
6.808859066467031 -25.586931577002638 1.057522718430983 25.000000000000000
6.757423424154434 -25.480921470464338 0.816154414411511 27.000000000000000
6.682120951640775 -25.154241410668146 0.732630686237739 32.000000000000000
6.592456308308130 -24.960512984558992 0.653462368499745 31.000000000000000
6.624362997109887 -24.867526846761738 0.574414127861910 26.000000000000000
6.601385590459013 -24.932953534606085 0.497216194548176 27.000000000000000
6.602484632672445 -25.091010076993012 0.417504256983825 31.000000000000000
6.612511890924992 -24.912203100222737 0.341252470264646 28.000000000000000
6.613905525955212 -24.882416900342847 0.262394230177766 28.000000000000000
6.597063499069179 -24.970033507058019 0.183736390322622 24.000000000000000
6.642721706257528 -24.929903012847056 0.106214354027639 26.000000000000000
6.595315690422533 -24.901063823426608 0.028662483646928 23.000000000000000
6.577223290573155 -24.984153491199653 -0.050641149671745 24.000000000000000
6.613750744066378 -24.908612534333571 -0.127981537536057 30.000000000000000
6.613791026621600 -24.873655820199936 -0.204519971564017 28.000000000000000
6.585637443581430 -24.917296914235816 -0.284167260314772 27.000000000000000
6.635892730317752 -24.895299782397878 -0.361230052686113 27.000000000000000
6.577178217020936 -24.822451654659375 -0.437310189758626 31.000000000000000
6.538974460091163 -24.826752900659010 -0.514150147258694 32.000000000000000
4.553634541848494 -17.281245725900362 -0.376377943401339 3.000000000000000
6.599568235572492 -24.810406542256725 -0.669525663780879 36.000000000000000
4.438226555147053 -16.784782441690549 -0.458546336362800 2.000000000000000
4.393523348002677 -16.566627615291061 -0.551842738091049 2.000000000000000
4.373451833573966 -16.461449357622051 -0.596902997621844 1.000000000000000
4.321521649894327 -16.361486892099283 -0.643456702104424 3.000000000000000
4.336103072599350 -16.273650698635535 -0.689156304024929 2.000000000000000
4.293880751655795 -16.212215809823952 -0.736422990319262 3.000000000000000
4.255065877679295 -16.162169982918130 -0.782646291273818 3.000000000000000
4.275105784558379 -16.097214297566666 -0.830688773703510 3.000000000000000
4.232026195937589 -15.902514567003307 -0.865308380006581 3.000000000000000
4.196435171994834 -15.863653884122057 -0.913228688598011 2.000000000000000
4.163220970199761 -15.693785301453822 -0.998793453391762 2.000000000000000
4.137690001790232 -15.693144181183746 -1.046962935474195 1.000000000000000
4.153629263184901 -15.616091946308902 -1.091429681150583 2.000000000000000
4.169484703516385 -15.652544105467651 -1.144148774264165 4.000000000000000
4.135027598672766 -15.616624149291354 -1.190924594468208 2.000000000000000
4.112387913243778 -15.626981966358208 -1.240355438440509 4.000000000000000
4.095429248075742 -15.422373476869108 -1.269494502948990 2.000000000000000
4.067177156225701 -15.409399725443768 -1.314899757657933 2.000000000000000
4.091214059005300 -15.366453156184793 -1.361625639826870 3.000000000000000
4.095972434134955 -15.359773312725675 -1.409173904637516 3.000000000000000
4.068599410388040 -15.350001678735635 -1.457645890445377 3.000000000000000
4.050050745355681 -15.374971679160764 -1.507776837191365 2.000000000000000
3.997366778071769 -15.161316571119087 -1.772154985826779 8.000000000000000
3.490330186804313 -13.151059534745926 -1.736982485827556 8.000000000000000
2.752611384440750 -10.390258371156555 -1.663470203079467 7.000000000000000
2.510475852687208 -9.415162998120675 -1.689767208686676 6.000000000000000
2.274769844459939 -8.605745717637735 -1.683228333534849 6.000000000000000
2.099409545973840 -7.889404778287844 -1.672574182975706 7.000000000000000
1.919931270630849 -7.277220899203147 -1.661658226591803 3.000000000000000
7.874416384475919 -30.195864727040586 4.530486747567523 33.000000000000000
7.311598688582969 -27.963015268466997 2.674084315478204 22.000000000000000
6.766010817164783 -25.810502972750648 1.545123570726959 12.000000000000000
6.765609050566927 -25.800286205137468 1.061037084500082 21.000000000000000
6.664413390227793 -25.340949503112562 0.892029764535534 42.000000000000000
6.767750366231007 -25.903456220487886 0.820374198787834 46.000000000000000
6.623442530130314 -25.301327910742049 0.733273963507198 27.000000000000000
6.570734179688393 -25.029897712108014 0.574344363955338 31.000000000000000
6.694221207189433 -25.672905075226364 0.496406797265229 28.000000000000000
6.621869309305952 -25.322615858129328 0.338267125091796 32.000000000000000
6.570998980483182 -25.087395561439156 0.260211093192859 36.000000000000000
6.537851437515863 -25.112983696214677 0.181792603663481 24.000000000000000
6.588855952841898 -25.092317875809982 0.103597657764172 26.000000000000000
6.546278123938500 -25.082732699632320 0.025257668075195 30.000000000000000
6.546996143512244 -25.020558523782970 -0.130617378661644 30.000000000000000
6.588695029802981 -25.148306932997286 -0.211972739667497 23.000000000000000
6.526581839521515 -25.060159104872206 -0.288304199578029 28.000000000000000
6.577160618809405 -25.038263174338262 -0.365732116131992 26.000000000000000
6.506694121674945 -24.918750436178556 -0.440453540808718 33.000000000000000
6.497775851747103 -25.039189120503089 -0.522178510427524 29.000000000000000
4.504325966607357 -17.351189500481240 -0.379337324486085 3.000000000000000
6.530144728475421 -24.910616406798450 -0.673516677849988 32.000000000000000
4.409153037060382 -16.927911607354481 -0.465905996981673 1.000000000000000
4.389961605745556 -16.700789025153664 -0.506053227169656 2.000000000000000
4.361392732374029 -16.694050001041166 -0.559023818619701 1.000000000000000
4.320235818044161 -16.503605273802243 -0.598922937959223 2.000000000000000
4.288967859940997 -16.484777601779872 -0.651053467020321 1.000000000000000
4.296263307278680 -16.365962123180584 -0.694892233218702 2.000000000000000
4.260939680255605 -16.331481339903156 -0.744389695849487 1.000000000000000
4.252358768297566 -16.255027460315254 -0.842375754849570 1.000000000000000
4.202165669327357 -16.029204898383664 -0.874854543269163 2.000000000000000
4.170418830209418 -16.005700290083382 -0.924448818541931 2.000000000000000
4.160953985691777 -15.824607553187658 -0.959087273590571 2.000000000000000
4.150476921803529 -15.885868226375168 -1.015405727321056 1.000000000000000
4.130470226481835 -15.908343855750163 -1.066300701582288 1.000000000000000
4.146111105537875 -15.827326211369583 -1.111012598713200 1.000000000000000
4.155035667532415 -15.836744091342265 -1.161576043662903 3.000000000000000
4.147521915504607 -15.908808699706579 -1.220136396154543 4.000000000000000
4.145545198949107 -15.860795699657542 -1.316556880681214 5.000000000000000
4.129217816018656 -15.897894996856827 -1.368877839288294 4.000000000000000
4.073802853086081 -15.534707820302014 -1.379833762353503 5.000000000000000
4.041678480915831 -15.381571291716742 -1.410349370527638 3.000000000000000
4.036531489956824 -15.460322886830241 -1.469698539973983 2.000000000000000
3.933197471067664 -15.140465638344281 -1.767431266422783 8.000000000000000
3.439890440974743 -13.155380191965968 -1.735957810070800 8.000000000000000
2.711853702157718 -10.392058539166014 -1.662148384166005 7.000000000000000
2.473129253930879 -9.416153576770455 -1.688273219903018 6.000000000000000
2.239365686819832 -8.602151391185844 -1.680694809347532 6.000000000000000
2.068345795323267 -7.892797669948710 -1.671747980328822 6.000000000000000
1.893714255730603 -7.291287136773146 -1.663823787593200 5.000000000000000
7.977767486573232 -31.062087832077168 4.639007337820395 26.000000000000000
7.315814784320152 -28.402204999795593 2.704821796911082 26.000000000000000
7.156886149716670 -27.752479469235986 1.619418376801425 25.000000000000000
6.684786043244797 -25.870174416518687 1.061578545699679 7.000000000000000
6.693018278562362 -25.837031073806052 0.898519827602086 30.000000000000000
7.123078933900535 -27.711264050385331 0.840652480164663 26.000000000000000
6.716961795531796 -26.057337231771697 0.739106168864761 24.000000000000000
6.696297434829219 -26.138831637989210 0.658883983166110 17.000000000000000
6.673498215139052 -25.816659171073628 0.575799581950788 25.000000000000000
6.695431100512507 -26.068491010288678 0.495776170674917 25.000000000000000
6.651590916072356 -25.664470942957159 0.415088598997052 31.000000000000000
6.666455252366077 -25.884695057583421 0.334268854106573 26.000000000000000
6.569672423485277 -25.463059722432362 0.256366487504312 28.000000000000000
6.542720627601250 -25.515808834210841 0.176534005522842 26.000000000000000
6.526111046335179 -25.223642857181552 0.101471268786421 26.000000000000000
6.589407783664265 -25.636786854795393 0.014838569901441 33.000000000000000
6.517863684307065 -25.127040821966229 -0.053679313434701 36.000000000000000
6.529253874162658 -25.330137552595346 -0.138183136584064 31.000000000000000
6.446625689911967 -24.965528037142523 -0.206639731234572 42.000000000000000
6.510261246931090 -25.377462312117196 -0.297852113166769 27.000000000000000
6.540003340520983 -25.270283260735958 -0.373267888806041 34.000000000000000
6.472564317042728 -25.162211835223481 -0.449062470204375 26.000000000000000
4.435431778002105 -17.186063792412622 -0.425107284897737 2.000000000000000
6.499115741369273 -25.165656577427740 -0.684667372095731 34.000000000000000
4.358097979834019 -16.832150505834399 -0.513116188594038 1.000000000000000
4.364920108153103 -16.968732688620868 -0.575257488085677 0.000000000000000
4.300420885549643 -16.681214305860536 -0.609678847857363 0.000000000000000
4.271847498144404 -16.673930320375817 -0.663099911979297 0.000000000000000
4.278949655069341 -16.551142701167549 -0.707187357043739 0.000000000000000
4.210938442452676 -16.384877538751084 -0.747508285703310 1.000000000000000
4.225043590312527 -16.292926822786086 -0.791811638435210 1.000000000000000
4.194015082614576 -16.273532688540847 -0.842950812839293 16.000000000000000
4.173390335491774 -16.163628653371902 -0.885041212323914 4.000000000000000
4.146322875853905 -16.159377631110939 -0.936666040656741 2.000000000000000
4.150283219212722 -16.028419655758057 -0.976185223263453 2.000000000000000
4.143134293471479 -16.105134392620641 -1.034509152850927 2.000000000000000
4.145790637324611 -16.073488701858718 -1.134009113437114 1.000000000000000
4.122084178871082 -15.951494904621592 -1.171981494035533 2.000000000000000
4.140862463515147 -16.131726668160383 -1.242114313824189 2.000000000000000
4.132118570716658 -15.949988389300112 -1.273701566998274 3.000000000000000
4.152528391934208 -16.137599940353869 -1.345755411358291 1.000000000000000
4.168182622370076 -16.158256793324803 -1.451010451318976 2.000000000000000
4.124218941659139 -15.954643149027010 -1.477310201640176 3.000000000000000
4.187428675437739 -16.314890018266603 -1.572847797630812 0.000000000000000
4.546377664856893 -17.608261001716603 -1.786388552213817 9.000000000000000
3.874886603769414 -15.142447459406412 -1.766019527806181 8.000000000000000
3.387578701506824 -13.151844105193671 -1.733687368625758 9.000000000000000
2.671116371561495 -10.393709172182225 -1.660824229964172 6.000000000000000
2.435805392622838 -9.417008436906976 -1.686777010254142 6.000000000000000
2.205821923982542 -8.606009297820471 -1.679943334561111 6.000000000000000
2.037283210360081 -7.896078897618544 -1.670919999369477 6.000000000000000
7.888040545282544 -31.174391871141509 4.649507645661808 29.000000000000000
7.285353419759436 -28.713990939455716 2.725932993510740 10.000000000000000
7.102813043591201 -27.959517426670811 1.626061985987829 24.000000000000000
7.073939821780215 -27.833891130784309 1.101291955568224 29.000000000000000
6.598407501673576 -25.852368344219567 0.897987897721352 1.000000000000000
7.071901935845474 -27.929984123736059 0.842453241669263 24.000000000000000
7.036135707518199 -27.746103379144238 0.752836692439316 27.000000000000000
6.655119128122160 -26.138601295272949 0.576106656870847 6.000000000000000
6.689164941903361 -26.444985426645488 0.495150165493200 1.000000000000000
6.660999991357929 -26.094971058272414 0.413184726673953 25.000000000000000
6.600499327273462 -26.016416063842680 0.333127334176526 26.000000000000000
6.576384640540945 -25.881730805994376 0.252099755793265 27.000000000000000
6.525722025976095 -25.841305705965500 0.172259443338008 26.000000000000000
6.550303246487696 -25.708055050466704 0.093767215772373 23.000000000000000
6.543401710920967 -25.845892157971488 0.010915871357273 29.000000000000000
6.585211507605997 -25.782046420307406 -0.067911529837450 30.000000000000000
6.522399903721909 -25.655309099766072 -0.225694631074958 28.000000000000000
6.531976101144368 -25.858009497437592 -0.312457898602114 24.000000000000000
6.541810765218357 -25.665302461736708 -0.386349607039272 28.000000000000000
6.492418386329422 -25.630827098745179 -0.466022998738654 27.000000000000000
4.455539347639585 -17.424887076467584 -0.382486127463063 1.000000000000000
4.420407033489979 -17.395338492908294 -0.435528356565651 2.000000000000000
6.504857381847789 -25.575929807780369 -0.702985159362205 27.000000000000000
4.350135791894064 -17.064336937536925 -0.526064241955122 0.000000000000000
4.335332228902001 -17.115640280233873 -0.583632775681426 0.000000000000000
4.339120129276782 -17.103212740858197 -0.636168996803751 0.000000000000000
4.286986684190573 -16.844938037711728 -0.727139364233438 0.000000000000000
4.136071548820063 -16.337341697738839 -0.743208498083908 3.000000000000000
4.157990345605107 -16.276475467983033 -0.789702797200377 12.000000000000000
4.144107285765360 -16.326702968501134 -0.846301538384723 6.000000000000000
4.135204268427735 -16.263196151953633 -0.892346680536919 3.000000000000000
4.140963155022168 -16.394427410467777 -0.955860220086099 1.000000000000000
4.135390699152433 -16.220746553921455 -0.992254808539900 2.000000000000000
4.143737092051192 -16.363259336291115 -1.057171749606062 1.000000000000000
4.128449442562383 -16.150767190196575 -1.088210373418757 1.000000000000000
4.147577430878592 -16.335318085096493 -1.158525775194153 1.000000000000000
4.124312256470936 -16.213161704740870 -1.197217752803913 2.000000000000000
4.131752929203799 -16.350927106227822 -1.263693257183527 1.000000000000000
4.141111503849769 -16.238553210169368 -1.303331100452490 2.000000000000000
4.151033304848242 -16.387603040374117 -1.371979500173637 1.000000000000000
4.142323474199054 -16.201681986653448 -1.401899455601874 2.000000000000000
4.170507378859226 -16.423568653300507 -1.480452419752562 2.000000000000000
4.151815546526281 -16.320058174924799 -1.519439046876573 2.000000000000000
4.488900507169343 -17.650905374258066 -1.790056558515157 8.000000000000000
3.335332786493682 -13.148113583428310 -1.731413749725319 9.000000000000000
2.630399726073648 -10.395212238988602 -1.659497663194518 6.000000000000000
2.400319507980295 -9.425340531299412 -1.686930026448273 6.000000000000000
2.173168411803569 -8.613543535418202 -1.680082133534871 6.000000000000000
2.009771873173106 -7.914372285155775 -1.673921856284430 6.000000000000000
1.866537009439415 -7.301504794147341 -1.664965485000712 6.000000000000000
7.826808382419604 -31.405972946233078 4.675509914811223 31.000000000000000
7.494325053764503 -30.014120786880049 2.821351214899191 25.000000000000000
7.038834529035069 -28.131579568236369 1.631348363841545 13.000000000000000
7.037010332241008 -28.114694505266293 1.106142194170451 22.000000000000000
7.005915716986405 -27.914470647901826 0.927231384823310 27.000000000000000
7.007915371201170 -28.102057321084214 0.843714873281251 25.000000000000000
6.967106236867084 -27.894734577805163 0.753449672787392 29.000000000000000
6.989863204502268 -27.734931425974239 0.667093970072310 26.000000000000000
6.957854243591330 -27.781751020861833 0.579587723839086 29.000000000000000
6.917597955133747 -27.797323992145323 0.493933481850190 30.000000000000000
6.970606497198979 -27.761199206154703 0.406748436081274 29.000000000000000
6.511001816869972 -26.017106655053286 0.250589855805527 3.000000000000000
6.503668642779789 -25.917126585316055 0.090411111501847 15.000000000000000
6.458201011584123 -25.899555318698869 0.009919866587954 6.000000000000000
6.498391442240261 -25.828070623256011 -0.068833656857698 20.000000000000000
6.917767816377571 -27.713589270396298 -0.197286228329466 27.000000000000000
6.510903387295999 -26.007983466859407 -0.235325668980931 20.000000000000000
6.524950929317308 -26.234110508993773 -0.323822492074007 26.000000000000000
6.531427935751989 -26.021817584966385 -0.398117312677272 29.000000000000000
6.463706697204761 -25.913456350791424 -0.476079618851011 24.000000000000000
4.427971358212748 -17.587760299748297 -0.390030644265338 1.000000000000000
4.410531128060473 -17.631908204402876 -0.447372457942306 2.000000000000000
6.476515444903098 -25.858453285213415 -0.715397251616667 15.000000000000000
4.332151515748968 -17.261743754840936 -0.536978116824939 1.000000000000000
4.321569535590181 -17.332437917135401 -0.596298687803503 1.000000000000000
4.279639324254691 -17.129788795087016 -0.637190392097877 0.000000000000000
4.293017970417483 -17.026070541506940 -0.686143974899341 0.000000000000000
4.263997539583085 -17.018739319079444 -0.738619668049603 0.000000000000000
4.080196184270582 -16.367088563013212 -0.744609485284658 3.000000000000000
4.107053075785715 -16.325672885715083 -0.792634707569465 19.000000000000000
4.113460078943011 -16.461161178699641 -0.856135455255469 3.000000000000000
4.111303895035541 -16.424723729383913 -0.904775553296411 2.000000000000000
4.131360882173344 -16.463532487205072 -1.012795404583572 1.000000000000000
4.145372232860145 -16.633212450087793 -1.080905616440812 1.000000000000000
4.126656702124567 -16.401118674713942 -1.110857963510385 1.000000000000000
4.149444949013373 -16.605107659478314 -1.183804910485381 2.000000000000000
4.113574365048903 -16.428601816365312 -1.217774280861385 2.000000000000000
4.135993383934347 -16.477104884247534 -1.327587363722437 1.000000000000000
4.159903990775089 -16.688074779165238 -1.403741579456967 1.000000000000000
4.152417125041175 -16.501895117525688 -1.434489957453789 1.000000000000000
4.170095944297588 -16.685236235110978 -1.509449921294927 2.000000000000000
4.168528777700450 -16.651099934112661 -1.557433858485690 1.000000000000000
4.551008215061310 -18.069988117554843 -1.786010764223009 8.000000000000000
4.421855312403377 -17.654775826185450 -1.788888046053919 8.000000000000000
3.813817459299043 -15.132663613705663 -1.762946159868865 8.000000000000000
3.284068820685167 -13.148030430676082 -1.729758627590824 9.000000000000000
2.591498660540318 -10.404217472446645 -1.659663220695549 6.000000000000000
2.364804049006623 -9.433549059810408 -1.687081055803879 5.000000000000000
1.975162717973050 -7.902306524561176 -1.669258768503421 6.000000000000000
1.840181065433942 -7.315399785891362 -1.667128259221793 5.000000000000000
7.720445732785638 -31.456156247213094 4.678017727403830 26.000000000000000
7.422631104074030 -30.187382132169134 2.831952064380673 24.000000000000000
7.368740776940971 -29.943442098481938 1.700257352398852 29.000000000000000
6.967291854933563 -28.267282837937604 1.108344935801688 10.000000000000000
6.945433085115967 -28.101935319489094 0.929161219021283 31.000000000000000
6.939077410414416 -28.258475899761628 0.844798007636088 17.000000000000000
6.907406230204034 -28.086009333692715 0.754425765900615 27.000000000000000
6.932952694572284 -27.933976575526302 0.667611603942548 20.000000000000000
6.885535825143380 -27.918532786260833 0.579420453556232 22.000000000000000
6.882456973825149 -27.831911377662447 0.406139111452070 29.000000000000000
6.862119690287226 -27.928510450577548 0.319839960740716 26.000000000000000
6.864589355441843 -27.898505535220618 0.232053663502339 30.000000000000000
6.860626950615693 -27.805857394854254 0.060516818212523 26.000000000000000
6.821817294810717 -27.827576049962996 -0.026376397338956 27.000000000000000
6.857705099842289 -27.720192116149910 -0.110094201811522 30.000000000000000
6.811942679277816 -27.710242383994640 -0.197043105675605 28.000000000000000
6.851398594694452 -27.834319325270307 -0.286106786828952 27.000000000000000
6.483014001700154 -26.230895320846248 -0.404869415105294 15.000000000000000
6.829964505117954 -27.852205875111753 -0.547516445242126 26.000000000000000
4.400247700014273 -17.754550448128210 -0.397767440801341 0.000000000000000
4.392591021406289 -17.841419981287352 -0.457798898652008 0.000000000000000
6.444407968348037 -26.133326072618352 -0.727453766091215 7.000000000000000
4.334124494635140 -17.548589925690070 -0.553102543116922 1.000000000000000
4.319219447932054 -17.603751385460917 -0.612304864421960 1.000000000000000
4.266052471782171 -17.350392315900436 -0.650700892830486 1.000000000000000
4.243076096099258 -17.091307533772056 -0.689817541849411 0.000000000000000
4.247225842429148 -17.223652338013189 -0.752289560529818 1.000000000000000
4.036081431878541 -16.447132746058355 -0.749717552339510 2.000000000000000
4.047499136498590 -16.339797724054556 -0.792893050768346 10.000000000000000
4.104894945678915 -16.692631078164681 -0.873691672332666 1.000000000000000
4.098278806064814 -16.636721176840421 -0.921369678000190 2.000000000000000
4.133081968905055 -16.625771232034463 -0.974725571059700 1.000000000000000
4.130290860176710 -16.725880064222054 -1.035058702379918 1.000000000000000
4.143337108896906 -16.895627805786578 -1.103932504956221 1.000000000000000
4.128703767948498 -16.674906158322589 -1.135711990635435 1.000000000000000
4.139379219538090 -16.832492322271811 -1.204918151785919 2.000000000000000
4.108726771755893 -16.675153372774680 -1.241456892035338 2.000000000000000
4.131348748110947 -16.612845346114028 -1.289700639404234 1.000000000000000
4.138460374268860 -16.754531552288896 -1.355985127126974 1.000000000000000
4.163978419909355 -16.977202447710074 -1.434231748722267 2.000000000000000
4.159537531722324 -16.798512196788785 -1.466648956236001 1.000000000000000
4.178900565122938 -16.993518672153396 -1.543840229600201 1.000000000000000
4.576407453132217 -18.641035577541615 -1.792876031427968 9.000000000000000
4.350242673255591 -17.639087836919408 -1.785298471725997 8.000000000000000
3.755614464611197 -15.134209949313155 -1.761527423565362 7.000000000000000
3.231042059370554 -13.140065883451051 -1.726857157540287 9.000000000000000
2.550798372048488 -10.405429716999141 -1.658332060907571 6.000000000000000
2.327498718141904 -9.434006390850399 -1.685578550569496 6.000000000000000
2.139610683536016 -8.617165289914611 -1.679326912322438 6.000000000000000
1.948410448616693 -7.924183104531416 -1.673215562073372 6.000000000000000
1.812034785447645 -7.321659703645995 -1.667244519064556 5.000000000000000
7.611083394075449 -31.494401464675654 4.679031607792854 29.000000000000000
7.537516768823965 -31.152408479201611 2.901978217716378 33.000000000000000
7.276513603834564 -30.031105017294813 1.702205064898377 24.000000000000000
6.816273320982542 -28.081201689999887 1.103582203746776 0.000000000000000
6.866137802414946 -28.215393290849377 0.930020756699387 16.000000000000000
6.810340350020057 -28.165645524224050 0.843017914812120 2.000000000000000
6.826187597830632 -28.191577699293411 0.754680479267743 13.000000000000000
6.852434937869598 -28.039600993623612 0.667621041501147 21.000000000000000
6.814192947696251 -28.062938885576916 0.579273405086337 23.000000000000000
6.856243045881488 -27.980684299311271 0.493400629325870 29.000000000000000
6.825383783314736 -28.034656492300748 0.405046005379796 24.000000000000000
6.795248980129097 -28.092318190017281 0.318470584078248 23.000000000000000
6.790452574260557 -28.031167787327075 0.230558711734850 26.000000000000000
6.815095885704808 -27.873895854796590 0.146064068980230 32.000000000000000
6.770253512321911 -27.868441613852216 0.059470514593098 26.000000000000000
6.803775823769274 -27.934479171790759 -0.114690375621111 25.000000000000000
6.732919815963471 -27.819354682922295 -0.199605124649746 27.000000000000000
6.745206578053832 -27.830716002306719 -0.285777084350126 27.000000000000000
6.445672014056829 -26.318836778393983 -0.326159422967126 10.000000000000000
6.387029495248544 -26.245477072273651 -0.405012734189085 1.000000000000000
6.790225847065035 -27.868183888622713 -0.633578141891453 37.000000000000000
5.645903706849171 -23.180952725842374 -0.590698848990623 0.000000000000000
5.587143593969666 -23.086133064067603 -0.659562413794316 0.000000000000000
4.329584968638221 -17.816227600926229 -0.568099172181070 1.000000000000000
4.264579431573448 -17.629437561911100 -0.667962569038009 1.000000000000000
4.243045305413466 -17.370095059763859 -0.707894578259034 1.000000000000000
4.252708934554644 -17.529690527981835 -0.773074451227438 0.000000000000000
4.001562622458513 -16.411968335751173 -0.797601157845305 4.000000000000000
4.147270624799069 -17.149515716359630 -0.909169271372031 1.000000000000000
4.093788055356589 -16.891549539456577 -0.941490519521604 2.000000000000000
4.128202015272689 -16.876665421981947 -0.995255722427708 1.000000000000000
4.131068066177622 -17.003948017524209 -1.058701586294307 1.000000000000000
4.129795379018520 -16.952792515301766 -1.160937647871395 1.000000000000000
4.133198007555289 -17.083283114891618 -1.228309532739892 2.000000000000000
4.110348751299635 -16.956772527448695 -1.268657259258778 1.000000000000000
4.130074293561636 -16.878839907622421 -1.316114632040771 1.000000000000000
4.142663635767394 -17.047676403097384 -1.386042868722498 1.000000000000000
4.157362652317016 -17.064420985082840 -1.495317012727689 2.000000000000000
4.215393147821559 -17.429807505700946 -1.593056468576257 1.000000000000000
4.518629076162474 -18.699346589044822 -1.798227286528186 10.000000000000000
4.284225341471058 -17.646320666238044 -1.784605441387789 8.000000000000000
3.695639302551529 -15.127828409825593 -1.758999617157279 8.000000000000000
3.179886686075581 -13.139600363660591 -1.725195903737642 8.000000000000000
2.827052144724239 -11.605807001232421 -1.704499275895590 7.000000000000000
2.289350850340165 -9.430506578626225 -1.683248020961672 5.000000000000000
2.106917410713707 -8.624463720839579 -1.679462082924469 6.000000000000000
1.915594559438127 -7.919452312179988 -1.670464722153235 7.000000000000000
1.783866019792854 -7.327827863869121 -1.667359173124627 6.000000000000000
7.510683642146611 -31.539733966848210 2.928588067297786 22.000000000000000
7.177401179668515 -30.091249897156452 1.703102491330931 17.000000000000000
7.173300414445476 -30.063589720488658 1.143405870284713 31.000000000000000
7.216362409030845 -29.966474899923583 1.049530864722757 30.000000000000000
6.769715401058796 -28.258553558144630 0.929869195118125 11.000000000000000
6.712252767827991 -28.200827190626033 0.842722021128620 0.000000000000000
6.734331517779427 -28.254082326684859 0.754578098104733 3.000000000000000
6.782250874104476 -28.191735968376392 0.667887131808604 14.000000000000000
6.739194713866951 -28.195509321771869 0.579100993006081 10.000000000000000
6.824904078946014 -28.296331227808089 0.492785348733069 8.000000000000000
6.781577479845059 -28.299662906016930 0.403722493683296 6.000000000000000
6.682878926814126 -28.065115017863700 0.318380704598324 4.000000000000000
6.699131029209444 -28.093546500877736 0.229750692923660 16.000000000000000
6.734478852329767 -27.979169212531943 0.144590893315497 26.000000000000000
6.724129134930662 -28.121575692345068 0.055412703444549 12.000000000000000
6.758858014816877 -28.006811004509345 -0.029738164553315 30.000000000000000
6.727443404441162 -28.059183588398398 -0.117330572516030 27.000000000000000
6.686773487755175 -28.072361512554593 -0.205753354753206 2.000000000000000
6.659095775424222 -27.912394239241504 -0.287831971537625 17.000000000000000
6.693739466107969 -27.796632233832415 -0.371633104203610 30.000000000000000
6.666918399054856 -27.867455701179715 -0.459767666547822 20.000000000000000
6.744851725000863 -27.938017054536729 -0.550252694494952 23.000000000000000
6.683070893057815 -27.860475546170001 -0.632759730523743 7.000000000000000
5.554228794919849 -23.165385627276262 -0.589440085054072 0.000000000000000
5.463385513036851 -22.930231617891575 -0.651303166361480 0.000000000000000
5.488614959614266 -22.820009963018155 -0.717156233952829 1.000000000000000
4.326804533747407 -17.925818558799566 -0.631415145351886 1.000000000000000
4.245622248663638 -17.668538303898909 -0.727285885359979 1.000000000000000
4.246252436171781 -17.793204828760626 -0.790854694530655 1.000000000000000
4.205532425575921 -17.448102985227781 -0.822469737636703 2.000000000000000
4.137367736050835 -17.273022527510616 -0.862584866489472 1.000000000000000
4.083101479401096 -17.127125519223100 -0.960012974617541 3.000000000000000
4.133321304122216 -17.178215593935999 -1.020110191580006 1.000000000000000
4.136211890702592 -17.309414717814384 -1.084756428792665 1.000000000000000
4.149440973427980 -17.200919266939110 -1.130877026193722 1.000000000000000
4.122717136687915 -17.203729556236567 -1.183597485439244 2.000000000000000
4.134219079144585 -17.373052549480775 -1.255496964175783 1.000000000000000
4.116289933262483 -17.265770423933127 -1.298595798603428 1.000000000000000
4.133282720355500 -17.172171603380807 -1.345349724266534 1.000000000000000
4.152012331925006 -17.372075862391306 -1.419416777605865 1.000000000000000
4.159772389591582 -17.239445076190123 -1.461746164628514 2.000000000000000
4.167700074889431 -17.392508266278618 -1.530982329317633 1.000000000000000
4.344716514591555 -18.077597001565380 -1.782134715771946 8.000000000000000
4.215534135851023 -17.641709415027808 -1.782457988527333 8.000000000000000
3.634863832284048 -15.117361589027528 -1.755915287765466 8.000000000000000
3.128772884790703 -13.138942893179252 -1.723531638956100 8.000000000000000
2.510990493112062 -10.410321062105590 -1.657745875650484 6.000000000000000
2.251255562770161 -9.426868368362634 -1.680915263369692 6.000000000000000
2.074198425082912 -8.631652606220911 -1.679595448710983 6.000000000000000
1.754844642960480 -7.330119693212463 -1.666449491406319 7.000000000000000
7.563716958961917 -31.798961200755322 4.714534456552316 27.000000000000000
7.403548536293121 -31.588986174091524 2.929860550436723 20.000000000000000
7.302676142424388 -31.128874228575729 1.741802300149453 21.000000000000000
7.319440728854526 -31.191341174088414 1.165584065990648 27.000000000000000
7.118305139049091 -30.030330849448866 1.049758358964066 8.000000000000000
7.081900334446917 -30.074696734672511 0.955318797851121 30.000000000000000
6.631393910728612 -28.269513416958588 0.754087730048856 4.000000000000000
6.673200933972741 -28.180059782121816 0.667269984572456 12.000000000000000
6.621217906138201 -28.144688436291105 0.578502386982829 2.000000000000000
6.732653039423917 -28.358834703798692 0.492329575891689 0.000000000000000
7.227689825680238 -30.696734085206568 0.394485851157395 15.000000000000000
6.587781719943833 -28.069869180005359 0.229785218574435 1.000000000000000
6.652306496914234 -28.080330369509429 0.143170553790893 6.000000000000000
6.599204782788971 -28.039529513820924 0.056651526731984 0.000000000000000
6.679350275992402 -28.119721365293156 -0.031851901891381 10.000000000000000
6.643130116878479 -28.152528808572768 -0.119287538817091 13.000000000000000
6.588020377139272 -28.103218890176354 -0.206370423932149 4.000000000000000
7.033928550819208 -30.004795286596099 -0.345990751172722 13.000000000000000
6.619392567317872 -27.928781224912004 -0.375430812529535 18.000000000000000
5.508537397651101 -23.452128323641755 -0.383332808889187 0.000000000000000
5.560447069368534 -23.451467222739641 -0.455808131843294 0.000000000000000
5.466283578109389 -23.201018619863895 -0.518849991460835 0.000000000000000
5.435911857943471 -23.032629467597843 -0.582793451788927 0.000000000000000
5.373650581588173 -22.917889482359278 -0.650116803219514 0.000000000000000
5.395619334009320 -22.792203661236009 -0.715065483451788 1.000000000000000
5.259239946741027 -22.354018759698732 -0.762235004433846 2.000000000000000
4.268353795128750 -17.939816742115571 -0.687228233395754 1.000000000000000
4.247938663354090 -17.974998985220445 -0.747206177532156 1.000000000000000
4.247704987136715 -18.099700254217144 -0.811649217073926 2.000000000000000
4.180307954935290 -17.629807427276578 -0.835011098597072 2.000000000000000
4.114278469203310 -17.462289019600934 -0.876211120718491 1.000000000000000
4.137453263452074 -17.393113937433078 -0.927662077784314 0.000000000000000
4.083121888055717 -17.417285844309074 -0.983025253089808 1.000000000000000
4.137267969999814 -17.483898632852696 -1.045302124231531 1.000000000000000
4.129577530552885 -17.572373004405595 -1.107032627804530 1.000000000000000
4.144572172625599 -17.467632097362969 -1.154268315882289 1.000000000000000
4.113933395533037 -17.454828970105929 -1.206260832688432 2.000000000000000
4.119240904362069 -17.571138690440211 -1.328148980938330 1.000000000000000
4.141573524437326 -17.496775764967499 -1.377809497070003 1.000000000000000
4.153862072246524 -17.673469152171176 -1.450312516493256 2.000000000000000
4.163543906973737 -17.544523144172956 -1.493948949515503 2.000000000000000
4.188134506635505 -17.775159335795813 -1.572773254463398 2.000000000000000
4.277341684737231 -17.990527637614846 -1.656655024320450 3.000000000000000
4.410656150122783 -18.540632669851316 -1.777796452993056 10.000000000000000
4.266594384417376 -18.038327179367467 -1.775796911039730 7.000000000000000
4.144291346037201 -17.625221106158879 -1.778855660224338 9.000000000000000
3.575082140475448 -15.110523456110846 -1.753380210587731 8.000000000000000
2.471179058584140 -10.415074072417376 -1.657157495074303 6.000000000000000
2.215733902236633 -9.434556463740909 -1.681058066477940 5.000000000000000
2.037266587225620 -8.619686429215642 -1.675265117512920 6.000000000000000
1.885337763989190 -7.925977987380850 -1.670586199845462 6.000000000000000
1.728281515299837 -7.343647136424444 -1.668606654940133 6.000000000000000
7.485917639516367 -31.979797347155575 4.734045076833656 28.000000000000000
7.199487184670892 -31.189154858858622 1.742695041146233 27.000000000000000
7.214005527194215 -30.943869670184743 1.064862999796574 1.000000000000000
7.153178213837422 -30.887025938750501 0.966222483187915 18.000000000000000
7.075673053462761 -30.251351704613761 0.865514600838993 10.000000000000000
6.571422303993765 -28.199175127677840 0.666827393927954 0.000000000000000
7.172893687112794 -31.050607992271019 0.584776612689009 22.000000000000000
7.212863172365853 -30.928453240784009 0.490229737584231 26.000000000000000
