# This PCD file was generated using the MATLAB® pcwrite function
# from Computer Vision Toolbox®.
# .PCD v.7 - Point Cloud Data file format
VERSION .7
FIELDS x y z intensity
SIZE 8 8 8 8
TYPE F F F F
COUNT 1 1 1 1
WIDTH 634
HEIGHT 1
VIEWPOINT 0 0 0 1 0 0 0
POINTS 634
DATA ascii
11.802680542084154 -5.185698356012296 0.187285087636265 24.000000000000000
11.779178690898913 -5.200522421133272 0.148119709903675 25.000000000000000
11.775992951419958 -5.174970443556035 0.110631644180689 24.000000000000000
11.802613125927886 -5.214788868615102 0.069798183583747 20.000000000000000
11.803120566636158 -5.179411383545627 0.032075129957130 26.000000000000000
11.804374579108977 -5.206544937990202 -0.008236718825280 27.000000000000000
11.790068913662369 -5.175628682470602 -0.045351805935184 25.000000000000000
11.794634088111623 -5.204578309390186 -0.085401238952061 24.000000000000000
11.783688679369018 -5.174983630315808 -0.122264576335672 24.000000000000000
11.791744573619317 -5.205643516068008 -0.162806353296015 24.000000000000000
11.788077055433025 -5.168211468910542 -0.199814531428247 29.000000000000000
11.785119669049102 -5.193233898947440 -0.240283552748140 27.000000000000000
11.806046336485689 -5.179718875063230 -0.278995092654368 25.000000000000000
11.795648675928009 -5.201303983586158 -0.318370955712742 22.000000000000000
11.787722085771655 -5.173128962947558 -0.354611554754538 25.000000000000000
11.816591055729594 -5.214283694809154 -0.397619842798150 27.000000000000000
11.794417574548659 -5.194463102136027 -0.473898798392143 27.000000000000000
11.800427684646767 -5.173181591941301 -0.511374939986347 23.000000000000000
11.796554187940668 -5.198194208903871 -0.551600182750290 24.000000000000000
11.798799722319458 -5.175086591307789 -0.588254667515447 26.000000000000000
11.805527180519524 -5.205041182362436 -0.629997091345910 25.000000000000000
11.805274976402810 -5.220167218151744 -0.669594307849999 28.000000000000000
11.821472432241173 -5.204034554384037 -0.709566078485220 26.000000000000000
11.800946298608412 -5.196572383548769 -0.785153553359292 23.000000000000000
11.795500419924798 -5.169713958472840 -0.820413067159085 25.000000000000000
11.815834052088606 -5.206318499619925 -0.864374538363637 26.000000000000000
11.804264744945687 -5.215881094008381 -0.902911374476740 29.000000000000000
11.809124332614880 -5.194160248067931 -0.941700517730364 24.000000000000000
11.814988924950702 -5.223569899591723 -0.981742588607839 23.000000000000000
11.809127977859459 -5.216956277346171 -1.214638448626112 24.000000000000000
11.799752522440874 -5.208476508619285 -1.446320886324337 24.000000000000000
6.560184654298751 -2.895737686744539 -1.000239448245954 7.000000000000000
6.195451084743980 -2.724998435355829 -1.044392268636044 18.000000000000000
5.982975296968944 -2.634418724426922 -1.115377535734899 25.000000000000000
5.986410728004322 -2.634220992184936 -1.236814069146014 1.000000000000000
5.937213172561890 -2.623407693788934 -1.865091557332894 9.000000000000000
4.151190916751086 -1.820847881406081 -1.778008672951078 7.000000000000000
10.250058198452173 -4.549019294886904 2.665572197312387 24.000000000000000
10.248157858373910 -4.538105410124260 2.053281990686034 22.000000000000000
11.801843985486727 -5.258825812558811 1.585305275500635 23.000000000000000
11.798550856720912 -5.239427586945226 0.729928756181644 25.000000000000000
11.805316043664048 -5.239018040596221 0.496634714934687 26.000000000000000
11.794781144687585 -5.235963887552302 0.419159030508391 24.000000000000000
11.789752241376243 -5.260259638097821 0.379925639638520 22.000000000000000
11.783726763347964 -5.233093010483998 0.341869560731014 23.000000000000000
11.804807664744979 -5.235002344612070 0.263736933675291 25.000000000000000
11.788713238702407 -5.253418872110259 0.224448263872198 27.000000000000000
11.807374096959538 -5.238714932316441 0.185938024105831 22.000000000000000
11.783817461870678 -5.253498290938197 0.146689303935448 22.000000000000000
11.787929065965217 -5.231433642952297 0.108877982017031 23.000000000000000
11.792929710320566 -5.260697830775996 0.068733507063259 21.000000000000000
11.804189543706181 -5.230656223968850 0.030543702484433 26.000000000000000
11.805348872741789 -5.257827890192161 -0.009841201691208 25.000000000000000
11.801931654854398 -5.232143879787529 -0.047530833480050 24.000000000000000
11.802809633193254 -5.259377274840247 -0.087508002440516 25.000000000000000
11.777694175671900 -5.222581808658205 -0.123695730641299 23.000000000000000
11.799956952372263 -5.260407028013390 -0.165102136121893 25.000000000000000
11.789157755037580 -5.219390455760930 -0.201768517401828 27.000000000000000
11.796833680599308 -5.249780010494362 -0.242993101626310 26.000000000000000
11.803549330010100 -5.229168325762856 -0.280853983501958 26.000000000000000
11.803799391002350 -5.256083416912517 -0.321042136284411 23.000000000000000
11.788861540733647 -5.224274633843805 -0.356849064544673 26.000000000000000
11.806867038019064 -5.260226666022888 -0.399108867107547 25.000000000000000
11.799046071656058 -5.220520707908847 -0.435864038719604 30.000000000000000
11.802513383851394 -5.249228634138902 -0.476944726060237 27.000000000000000
11.797921559312972 -5.222593797116559 -0.513584980367632 23.000000000000000
11.801101669495676 -5.251173572568447 -0.554513192356786 22.000000000000000
11.799894950844019 -5.226250273749386 -0.590914856743517 27.000000000000000
11.802947819538106 -5.254477959585927 -0.632385672559796 25.000000000000000
11.822351216849833 -5.255323334305629 -0.712438589467384 26.000000000000000
11.799367687195915 -5.219616838450506 -0.746730196721101 24.000000000000000
11.798320835414494 -5.245998637409841 -0.787774599338057 23.000000000000000
11.793001879160025 -5.219082213149377 -0.823089844313014 23.000000000000000
11.816772583077263 -5.257543249720086 -0.867528585109465 25.000000000000000
11.797904714705076 -5.263570730350750 -0.905278657773052 26.000000000000000
11.806430939136767 -5.243603437894393 -0.944553657005413 24.000000000000000
11.813403603328249 -5.269942950981275 -1.218933438211421 24.000000000000000
11.811068156774057 -5.264929893334994 -1.452272579159336 22.000000000000000
6.502940611582405 -2.893727814485587 -0.990284729714427 8.000000000000000
6.169891914561309 -2.738520630366295 -1.041295401031118 21.000000000000000
5.940762894955561 -2.637796660561193 -1.107370935832757 27.000000000000000
5.903573102107112 -2.615265970248316 -1.216326705186692 0.000000000000000
5.925671367168444 -2.643511950323102 -1.865422374811866 9.000000000000000
4.145548955349673 -1.836584612069970 -1.779950870347728 7.000000000000000
10.253065979415281 -4.594890571102241 2.669427350555738 25.000000000000000
10.261955837520100 -4.589430671444021 2.057509037582238 25.000000000000000
11.802658486342718 -5.310139456512019 1.586594638397259 24.000000000000000
11.806559656847410 -5.294351532095490 0.729803181569176 24.000000000000000
11.806171512816528 -5.290372344749017 0.495949754051752 26.000000000000000
11.788542431440943 -5.283671794559183 0.418387230865899 25.000000000000000
11.791845889490999 -5.287920762102587 0.340801055029976 23.000000000000000
11.796516296628129 -5.266268796073916 0.301890942461161 25.000000000000000
11.805663942541852 -5.286343127993248 0.262628211906583 26.000000000000000
11.800220522697956 -5.310135522746023 0.223009673853402 26.000000000000000
11.808260558430788 -5.290050761768896 0.184686834252768 24.000000000000000
11.788225113340854 -5.306576712556819 0.145257121200646 24.000000000000000
11.785308327371382 -5.280887244010955 0.107607316721592 24.000000000000000
11.808611875123303 -5.283779875916679 0.028865955895498 28.000000000000000
11.791824625914852 -5.301996587403735 -0.010818850112609 26.000000000000000
11.802818839131229 -5.283442992733356 -0.049206405172546 26.000000000000000
11.800030730731841 -5.308917643888151 -0.089075220603049 25.000000000000000
11.785801585721345 -5.277353271285335 -0.125895771576950 24.000000000000000
11.818638594707108 -5.320668246350934 -0.168012270783100 23.000000000000000
11.790019733539689 -5.270650782568680 -0.203723885088281 27.000000000000000
11.804724353297923 -5.304683242503572 -0.245477450099592 27.000000000000000
11.804417058921011 -5.280458450066149 -0.282952977078692 24.000000000000000
11.804571979009909 -5.307403871222505 -0.323213118843709 23.000000000000000
11.782641571605390 -5.271933705131715 -0.358563013184555 26.000000000000000
11.896846528398779 -5.356251673518400 -0.408287664872750 21.000000000000000
11.792736555246544 -5.268218426056961 -0.437670733774126 29.000000000000000
11.831747394567163 -5.314881907611394 -0.481781473936962 24.000000000000000
11.795208639447591 -5.272066050982204 -0.515796362856253 24.000000000000000
11.869559533788140 -5.336448262421172 -0.563215135088556 18.000000000000000
11.790074140196250 -5.272144648524929 -0.592577503700710 25.000000000000000
11.896359336467299 -5.352175567428205 -0.644088276622321 20.000000000000000
11.809623437688193 -5.273227649533496 -0.672750522230502 27.000000000000000
11.858602296284193 -5.324570144749956 -0.718994371525857 23.000000000000000
11.814437459905939 -5.277973381692831 -0.751189338965827 22.000000000000000
11.891563002732909 -5.343664111115757 -0.800969728425176 18.000000000000000
11.917099278867271 -5.358722193530042 -0.882300834213159 19.000000000000000
11.853276093685810 -5.318079615527324 -0.953540626809366 21.000000000000000
11.829972156749589 -5.281933928512728 -0.986899803547326 22.000000000000000
6.452668409738380 -2.895120861655158 -0.981912680047483 11.000000000000000
6.147731643245320 -2.753787550011182 -1.039057053570576 21.000000000000000
5.912204376775618 -2.648467910242147 -1.103067492528182 28.000000000000000
5.848046409064228 -2.610813583312435 -1.203764026072037 0.000000000000000
5.910761128530145 -2.661743745628002 -1.864429852369670 9.000000000000000
4.130552268599803 -1.846722840392530 -1.776754991348963 7.000000000000000
10.252378103026354 -4.639040656516471 2.672542957462891 25.000000000000000
10.257878756163946 -4.631865572211638 2.059066330271331 22.000000000000000
11.817892424842626 -5.351206677608815 0.729742580232263 24.000000000000000
11.824650542247129 -5.350833255763732 0.495244492477309 27.000000000000000
11.803525199402355 -5.342249246291644 0.417450986918273 24.000000000000000
11.794154751733048 -5.313367351236991 0.378989130766403 22.000000000000000
11.831854983836898 -5.359097590897989 0.339273192147967 22.000000000000000
11.815239285065084 -5.326566019856443 0.300537234415696 24.000000000000000
11.824141548801874 -5.346792951980220 0.261145905286309 26.000000000000000
11.898148921615338 -5.386562788139969 0.180983916548493 17.000000000000000
11.803896931542386 -5.341208286832909 0.105606199649947 22.000000000000000
11.811647656077342 -5.320960207837430 0.066601672296452 20.000000000000000
11.809237039978383 -5.335194114599688 0.027331683219256 26.000000000000000
11.874354770626125 -5.395001366954588 -0.016041375974288 21.000000000000000
11.867694970266990 -5.367265911583388 -0.053922487073621 22.000000000000000
11.807935190294014 -5.339448251965948 -0.128867157265502 24.000000000000000
11.812049435456679 -5.332802707246202 -0.206974828958930 28.000000000000000
11.894280485901668 -5.401271981444211 -0.253204803673774 20.000000000000000
11.879918959708414 -5.369616432989147 -0.290080374933805 19.000000000000000
11.897715925087352 -5.405711381431487 -0.331919704797393 12.000000000000000
11.804743969462278 -5.333981060027526 -0.362378808325378 24.000000000000000
11.793353999179869 -5.319550104779751 -0.440050637747168 29.000000000000000
11.917584259099659 -5.409667903713114 -0.491395137682443 8.000000000000000
11.884864496703250 -5.368295175305519 -0.526061074451261 16.000000000000000
11.916217015707090 -5.411466388983442 -0.569995735907876 1.000000000000000
11.890433675342045 -5.373630353216484 -0.604563720018439 18.000000000000000
11.867086259051566 -5.353325268901287 -0.681253658975620 22.000000000000000
11.922931728947900 -5.408541072618405 -0.728502733251234 7.000000000000000
11.914573442355735 -5.379532905211548 -0.764765568566134 14.000000000000000
11.911806149695831 -5.380588936400983 -0.842548764037349 14.000000000000000
11.873016050266855 -5.352503889369459 -0.917449911437275 23.000000000000000
11.906833563501678 -5.396545507206028 -0.963410624253639 4.000000000000000
11.919226209757189 -5.378046797641019 -1.001498505302616 13.000000000000000
11.916637109733118 -5.372983777373335 -1.237759192952525 13.000000000000000
11.910487147823687 -5.365999356188155 -1.472920489837870 19.000000000000000
6.423061738531313 -2.907563641303170 -0.978301317178328 12.000000000000000
6.118706587565521 -2.765145145977925 -1.035095014828189 18.000000000000000
5.897220585103422 -2.666597607596174 -1.102470108197709 28.000000000000000
5.877166173555569 -2.653318755562225 -1.215992478107460 0.000000000000000
4.112443061616409 -1.854895406297231 -1.771844927067600 7.000000000000000
10.248012277647835 -4.681441452082623 2.674919380488136 24.000000000000000
10.267711852612225 -4.681615381157059 2.062756046983325 23.000000000000000
0.343194645091876 -0.156856972462023 0.040024124696748 0.000000000000000
11.907307579937305 -5.448271618986610 0.731147969758929 9.000000000000000
11.903397227439489 -5.442445829576769 0.494467273162450 9.000000000000000
11.896624386327492 -5.440989690294330 0.415906270769499 11.000000000000000
11.894625501721137 -5.415458269192683 0.376992403311408 18.000000000000000
11.907145722286501 -5.448779965222400 0.337229292163695 4.000000000000000
11.901465484866865 -5.421411755716605 0.297986315075518 13.000000000000000
11.899324603001190 -5.436542135929997 0.258465721718273 7.000000000000000
11.872082291160121 -5.397789407781900 0.220099476550613 22.000000000000000
11.881550611035507 -5.404976077751229 0.141072318704155 17.000000000000000
11.886339342333317 -5.434375782118991 0.101409710325372 8.000000000000000
11.901414761206206 -5.417545810484611 0.061794578439503 9.000000000000000
11.905774376774367 -5.435750886050045 0.021871554994869 12.000000000000000
11.889712869663096 -5.405484863693488 -0.095343516575189 15.000000000000000
11.890311926009092 -5.432568984773368 -0.135114991703994 6.000000000000000
11.897632747342383 -5.411793424167882 -0.174399131424517 7.000000000000000
11.904944825766796 -5.431480796730085 -0.214547949686732 12.000000000000000
11.883478026635864 -5.425204502174481 -0.370404830215503 7.000000000000000
11.879062093529352 -5.414444385447624 -0.449305986777081 20.000000000000000
11.885076522163196 -5.414010099905568 -0.685842758602722 2.000000000000000
11.873211800895799 -5.404143436822366 -0.920675687816080 1.000000000000000
6.952926114472054 -3.171279758201436 -0.933144846089573 1.000000000000000
6.386589598756494 -2.916033346136331 -0.973098398869548 11.000000000000000
6.076042623547018 -2.768706128872438 -1.027685162979277 17.000000000000000
5.872013132242647 -2.678920162469879 -1.099089784965043 23.000000000000000
5.868928339572023 -2.675120041028052 -1.217312058803842 2.000000000000000
5.902371427578643 -2.683616829700526 -1.866082744444703 9.000000000000000
4.103572958201671 -1.868640516942719 -1.772072302624404 7.000000000000000
10.250440279418498 -4.727514738974293 2.678771174042259 26.000000000000000
10.256228537124290 -4.720503148483772 2.063245220903528 23.000000000000000
11.909972248115068 -5.476516702484474 0.691987596201181 1.000000000000000
11.862742982052771 -5.448465837940120 0.455070229626183 0.000000000000000
12.747747916448414 -5.846788063116634 -1.363530597986379 26.000000000000000
6.936075323849927 -3.193027438109667 -0.932817781546868 6.000000000000000
6.356973313316097 -2.928127083188457 -0.969481531890997 11.000000000000000
6.043629605345710 -2.777772411778827 -1.022855598842260 18.000000000000000
5.843407409884663 -2.689174657620782 -1.094779780631626 23.000000000000000
5.867341637085140 -2.700739225227920 -1.220616057845164 4.000000000000000
5.887330137996360 -2.701743007855995 -1.865088169416877 9.000000000000000
4.088499792721356 -1.878565890333164 -1.768872958018527 8.000000000000000
10.259624077507446 -4.777331743928812 2.684097046017790 24.000000000000000
10.251612308989833 -4.763061518446023 2.064800395928805 23.000000000000000
13.702336047786620 -6.384736629050465 1.763112258715386 18.000000000000000
15.429714888947464 -7.185263791769131 -1.194213974441717 7.000000000000000
15.152496414382783 -7.044478649344001 -1.263615004082829 21.000000000000000
13.967529167859670 -6.501009859556717 -1.221900424711103 19.000000000000000
13.839832495523888 -6.405847874419791 -1.248584104983908 17.000000000000000
12.693195220486961 -5.874371652130421 -1.359574537692833 20.000000000000000
6.915713766971854 -3.212786755578648 -0.931773659591077 9.000000000000000
6.320521549134337 -2.936198421079524 -0.964271993839158 11.000000000000000
6.018011262242807 -2.790528441667703 -1.019746416995621 20.000000000000000
5.814796016364967 -2.699281525550589 -1.090467407927065 20.000000000000000
5.858920309222171 -2.722534734180698 -1.221935613101888 3.000000000000000
5.875507790382078 -2.721679442948016 -1.865416654322854 10.000000000000000
4.082614275899311 -1.894132916431545 -1.770812403507853 7.000000000000000
10.258165995836308 -4.821746475166250 2.687208234283855 26.000000000000000
10.253823948690783 -4.809369254519339 2.067420264009368 24.000000000000000
13.670758073772340 -6.428275384369357 1.761690503882793 19.000000000000000
15.138592492520008 -7.110009025317751 1.293364083246027 15.000000000000000
15.752917918853070 -7.398369279325266 -0.240024553663788 4.000000000000000
16.007612559250237 -7.522979254368835 -0.570108493327154 20.000000000000000
16.205874421165866 -7.613561084371923 -1.227082550145930 22.000000000000000
15.476734149854433 -7.276481653328332 -1.203316233715844 56.000000000000000
15.100775439652253 -7.084084585640539 -1.261563672583149 22.000000000000000
14.321492949299639 -6.713014258790935 -1.219144631372011 27.000000000000000
14.087346186251663 -6.623785367449571 -1.240672490308004 22.000000000000000
13.832780766634487 -6.462588116755057 -1.251612990505736 21.000000000000000
12.684407352652235 -5.925325984827353 -1.362367218921378 21.000000000000000
6.884997369285563 -3.226686205412747 -0.928580041487441 8.000000000000000
6.294305485019819 -2.949883568674736 -0.961444448832994 12.000000000000000
5.999150763936107 -2.807030190366049 -1.018358574315374 21.000000000000000
5.792919333598473 -2.713120897954667 -1.088007991382741 17.000000000000000
5.853767284932395 -2.746253328916353 -1.224247568558750 5.000000000000000
5.863612953112479 -2.741573557247776 -1.865744128187022 10.000000000000000
4.073600627300505 -1.907778155758621 -1.771038257197647 7.000000000000000
0.258576044693851 -0.122630456455781 0.062366460975603 0.000000000000000
10.255833117365276 -4.855760894589963 2.070038765875407 24.000000000000000
13.649648872646662 -6.477194965543774 1.761245182527438 18.000000000000000
14.640100198927543 -6.914425651677519 0.976654911372609 0.000000000000000
16.120029686188758 -7.639990560706067 0.863782058798515 43.000000000000000
15.797600974538131 -7.469611951695114 0.542576825958015 7.000000000000000
15.933081717199528 -7.533737050304737 0.225579757811826 15.000000000000000
15.732018116751528 -7.462653890918730 0.176638508907681 8.000000000000000
15.804921049935515 -7.464888846501239 0.123199842695766 12.000000000000000
17.121053024621784 -8.101076627159756 0.035726683974253 24.000000000000000
15.708654966599051 -7.445289804755532 -0.135414503863073 0.000000000000000
15.716634242858351 -7.414456529164568 -0.187685229099582 2.000000000000000
15.703436453979775 -7.441746781483488 -0.239897294230295 17.000000000000000
15.732333983382217 -7.421956078435443 -0.292557196628335 17.000000000000000
15.843292280607789 -7.512573254817511 -0.351235219969939 16.000000000000000
16.021589013531802 -7.568609390202539 -0.413331079442819 18.000000000000000
15.992963190797273 -7.586470876290491 -0.465274069738191 24.000000000000000
16.003912946461440 -7.556396475661614 -0.518887261382547 20.000000000000000
15.986105774339746 -7.581857138075165 -0.571490916788154 2.000000000000000
16.014415709287572 -7.561022187012838 -0.625358075351781 5.000000000000000
18.761031016849209 -8.873209451017999 -1.312911079077390 9.000000000000000
16.235511236462376 -7.664853699316339 -1.179608375563516 5.000000000000000
16.364687929894259 -7.765800617431466 -1.248145068945348 36.000000000000000
15.540997221177198 -7.377221074782582 -1.214386357631478 10.000000000000000
15.038344018628132 -7.117962821606952 -1.258261667824784 21.000000000000000
14.239133095158229 -6.733087938280875 -1.213120727277109 20.000000000000000
14.001850359928397 -6.641148618126337 -1.234004771226675 23.000000000000000
13.825498768116606 -6.519353817046451 -1.254642429995548 22.000000000000000
12.643759808369989 -5.959801868958309 -1.360482714512034 18.000000000000000
6.861115629632913 -3.244293496631911 -0.926816255221625 7.000000000000000
6.261268812552133 -2.959525490109669 -0.957024206535538 12.000000000000000
5.976862597585748 -2.821489214941209 -1.016107157100802 20.000000000000000
5.764290946171086 -2.722931623466735 -1.083690617838376 14.000000000000000
5.838474034077156 -2.764118882012383 -1.223581070708053 3.000000000000000
5.845120358815600 -2.757636579913665 -1.863423050798469 9.000000000000000
4.067594777500942 -1.923318474590985 -1.772977521496562 6.000000000000000
10.251222467732498 -4.908879649680472 2.692690511929188 25.000000000000000
10.257639590804436 -4.902228679925756 2.072655983493620 22.000000000000000
13.628358976526448 -6.526062875756182 1.760800672460368 18.000000000000000
14.485981405180677 -6.898514930911915 0.971739279059813 14.000000000000000
16.805473045081765 -8.026436856530694 0.822583611124982 29.000000000000000
17.119448290506160 -8.147664003980921 0.658966366600591 18.000000000000000
15.779969214782399 -7.529610472183663 0.541707283611034 31.000000000000000
15.768174217825800 -7.555544308223659 0.488251287373942 25.000000000000000
15.973440278591791 -7.626358987253539 0.435744954191500 15.000000000000000
15.961949707620876 -7.584735828021834 0.383382087552724 1.000000000000000
15.988966034378244 -7.633310516178824 0.329551203945306 19.000000000000000
16.897100322910312 -8.028269538901085 0.320721953830520 17.000000000000000
15.668127500052172 -7.498478513163732 0.176503332129869 18.000000000000000
15.730347314670324 -7.495541701728442 0.123437819659217 7.000000000000000
17.182911891272113 -8.207737256256920 0.032201622971187 22.000000000000000
17.349356490706022 -8.254175414376704 -0.029593951420421 18.000000000000000
17.370972490935184 -8.302041422852611 -0.088090010925727 6.000000000000000
15.651914333092533 -7.484735616986342 -0.135132959546123 15.000000000000000
15.677749534608774 -7.463167503408386 -0.188098009416091 18.000000000000000
16.008647225723998 -7.668797011989966 -0.256710318831633 5.000000000000000
15.998881730027586 -7.628242172976812 -0.308482986722535 5.000000000000000
15.981544264525613 -7.653528219984892 -0.361196684408017 25.000000000000000
15.989339410116980 -7.622063217783520 -0.414031744586300 21.000000000000000
15.992454470678155 -7.656353285821396 -0.467905254489628 9.000000000000000
16.003554550381846 -7.626262628233164 -0.521615126376285 5.000000000000000
18.745468531666599 -8.947087312048367 -1.315698671772342 12.000000000000000
17.973078088870157 -8.593857264937768 -1.301571451086014 10.000000000000000
16.398847100023573 -7.855208974290051 -1.255914398703927 21.000000000000000
15.185896606064242 -7.227272774348350 -1.225492719687613 30.000000000000000
14.209682674494278 -6.780306269282718 -1.213494924191930 21.000000000000000
14.025567682683022 -6.715217921977825 -1.240940120511479 23.000000000000000
13.842653177917583 -6.589022593908197 -1.260824399756040 18.000000000000000
12.592490537919725 -5.988537515298333 -1.357035437062399 15.000000000000000
6.830354471132662 -3.257876979033995 -0.923617288510107 5.000000000000000
6.228237595044004 -2.968982927571886 -0.952600854336245 13.000000000000000
5.947795599214565 -2.831898018884644 -1.012129747765007 18.000000000000000
5.755787076912513 -2.744413829388790 -1.084940396520050 3.000000000000000
5.752959556778209 -2.740716053214655 -1.202060493301730 6.000000000000000
5.829839866555905 -2.775516510415429 -1.862424636192618 9.000000000000000
4.055426711984195 -1.934976001419216 -1.771488539482064 7.000000000000000
0.236924403417978 -0.113902644493507 0.067532100338205 0.000000000000000
10.266207325544029 -4.952566612141823 2.076335956786860 22.000000000000000
13.628031970876838 -6.586051682615064 1.762303238656529 19.000000000000000
14.449017589289902 -6.942876143289297 0.970582536728354 21.000000000000000
16.817711864600422 -8.106584033166399 0.822433066116913 28.000000000000000
15.819603003202886 -7.585087244623779 0.593317507110185 16.000000000000000
15.825979882118016 -7.622810000616639 0.540972847250388 18.000000000000000
15.770725671128924 -7.590813641417682 0.435640697242831 14.000000000000000
15.908323358189504 -7.626907033579542 0.382677365923591 16.000000000000000
15.892635841248580 -7.653372532722244 0.329405292404299 3.000000000000000
16.722592778570391 -8.047842126907838 0.265546685421074 18.000000000000000
15.604174964194582 -7.533961289744397 0.176373675834323 15.000000000000000
15.597149349348841 -7.529272459439454 0.072761737817206 6.000000000000000
17.119989951416951 -8.250489846293320 0.032119873582581 25.000000000000000
15.592972216471312 -7.526060887843627 -0.030815423740117 11.000000000000000
15.622665451554221 -7.506883309383056 -0.083408085515416 19.000000000000000
15.641122050598744 -7.547996612389952 -0.136744247650375 8.000000000000000
15.706060664391803 -7.546793644784088 -0.191506845082577 5.000000000000000
15.969936898496654 -7.683442773059326 -0.309385908309708 21.000000000000000
15.959612333437109 -7.712363511043790 -0.362485366655466 8.000000000000000
22.528804445080034 -10.889104019197219 -1.385734324533837 4.000000000000000
21.318911914271137 -10.264901169127072 -1.425017335537490 2.000000000000000
18.754421935652569 -9.033728830180834 -1.320905193419402 11.000000000000000
18.029064563413861 -8.701757312105059 -1.311508319632257 9.000000000000000
16.287838781776802 -7.869436128473879 -1.248086600630718 30.000000000000000
15.671863994710030 -7.513360907182729 -1.232921092548607 41.000000000000000
15.338322283916696 -7.373408649969534 -1.246940249578893 24.000000000000000
14.222296467345455 -6.849654423745307 -1.218994511819492 22.000000000000000
13.989177663392221 -6.757962926072267 -1.240412151473631 24.000000000000000
13.760987435408254 -6.607102636606399 -1.254396991281672 18.000000000000000
12.520146981929628 -6.005850267075829 -1.350463110646851 18.000000000000000
6.765458585094864 -3.251691696617584 -0.913249234571435 4.000000000000000
6.191828913282967 -2.976273338482613 -0.947378785684959 13.000000000000000
5.915359026774428 -2.840165142625480 -1.007287239239875 15.000000000000000
5.730461574785057 -2.755960933785943 -1.081547491294972 0.000000000000000
5.721025843137956 -2.748339815952775 -1.196421852161248 11.000000000000000
5.814500812462536 -2.793333141141474 -1.861425418436392 9.000000000000000
4.049307618187941 -1.950475291738499 -1.773426956544009 6.000000000000000
0.271096620158075 -0.131979764185573 0.057178567619105 0.000000000000000
14.489687449701886 -7.028170896736881 0.971919364730007 18.000000000000000
15.349270617406773 -7.478181431185220 0.794293059558991 1.000000000000000
15.836960375618904 -7.663756335791675 0.592671491832921 25.000000000000000
15.779434427433936 -7.668111318653729 0.540042287552115 52.000000000000000
15.810317381905657 -7.647079675488996 0.487270696672392 25.000000000000000
16.099446711441153 -7.833312955147804 0.433090895684442 82.000000000000000
15.989257565048336 -7.739289911405223 0.380908318045696 1.000000000000000
16.649694341369973 -8.083332058348745 0.265221586530462 27.000000000000000
15.529554004161108 -7.563492468701256 0.176475956860861 19.000000000000000
15.545731893069352 -7.536965950933407 0.124806559706230 2.000000000000000
17.130932110143810 -8.294810603891250 0.087481772104477 28.000000000000000
15.552459028488515 -7.539670790842010 0.020791768517168 18.000000000000000
15.557345463441568 -7.576117015500984 -0.031450703872530 12.000000000000000
15.622528831591463 -7.575613366904818 -0.085365968541123 3.000000000000000
15.956880228919260 -7.747837709139873 -0.204877221577629 21.000000000000000
15.979541935745445 -7.724026368618425 -0.257613166733303 24.000000000000000
15.926643832366837 -7.731106227742146 -0.309560658928764 2.000000000000000
24.442032899638928 -11.859206773225026 -1.383514695118117 3.000000000000000
22.046356264912234 -10.687279828768922 -1.419320737061229 2.000000000000000
21.287762739658838 -10.342296304425332 -1.426866672808869 2.000000000000000
18.745304918105230 -9.111379292309650 -1.324386104224989 9.000000000000000
18.006833087160391 -8.769564117685206 -1.313596067701936 10.000000000000000
17.548067816413333 -8.489780917911091 -1.324611550629971 8.000000000000000
15.361044385844446 -7.487526252029426 -1.206406450345912 34.000000000000000
15.236257213567063 -7.387429434868864 -1.239323553983097 27.000000000000000
14.164349587993586 -6.881865207659473 -1.215947812725474 21.000000000000000
13.956165524434752 -6.802408887601786 -1.240320935311511 24.000000000000000
13.767142940764503 -6.671254511119514 -1.259228120357133 21.000000000000000
12.423348805926999 -6.009653771776641 -1.340241902494740 18.000000000000000
6.717712320543130 -3.254959709473937 -0.906459015213149 5.000000000000000
6.162197893826463 -2.987337625396151 -0.943745215241249 14.000000000000000
5.896372935635095 -2.856214608629372 -1.005891908408782 13.000000000000000
5.765250575484905 -2.803277072293213 -1.094867463539317 0.000000000000000
5.685777784211975 -2.753793823402191 -1.189786929898498 2.000000000000000
5.805593270778331 -2.814939195913638 -1.863074012808610 8.000000000000000
4.037055601169372 -1.962034619445618 -1.771936851324779 6.000000000000000
10.258367237440952 -5.040181329712851 2.079968182121432 23.000000000000000
13.613379147259549 -6.638625321015809 1.762507728689260 19.000000000000000
14.385266334598988 -7.036731351738936 0.968616165955660 24.000000000000000
17.178923939004559 -8.406800228462217 0.771970721248564 14.000000000000000
15.669976594870541 -7.645614639815506 0.591043346503637 17.000000000000000
15.715083879159712 -7.703836363691053 0.539079925266905 22.000000000000000
16.050029643244855 -7.843721185477818 0.486012727234040 26.000000000000000
15.992043552627978 -7.847621136120168 0.432549572549130 11.000000000000000
15.967013714578568 -7.798188750187350 0.379949920607750 4.000000000000000
16.417643180175329 -8.071847720492286 0.320978194503188 25.000000000000000
16.578929167889950 -8.083900014319255 0.320426271235422 24.000000000000000
16.573209342638048 -8.116557551580215 0.264954803710039 24.000000000000000
15.513551439436329 -7.588714618274608 0.124017881346868 16.000000000000000
15.622787356489932 -7.645691464891584 0.016804671220356 21.000000000000000
15.918991496770269 -7.801356134801111 -0.098632380152880 21.000000000000000
15.972941678607533 -7.792344626532497 -0.152533252224555 17.000000000000000
15.973388652252620 -7.827213430026106 -0.207833662724464 9.000000000000000
15.950241984549479 -7.779155515403716 -0.258514371055231 2.000000000000000
25.706545183962959 -12.564970913859838 -1.396634398853113 2.000000000000000
23.446495578409703 -11.516492504004191 -1.390866708137162 3.000000000000000
22.569871285814390 -11.009135509790923 -1.393876554796828 3.000000000000000
21.259867409405558 -10.421443968421599 -1.429036858387794 2.000000000000000
18.704091196691149 -9.172453414512361 -1.324754458963472 9.000000000000000
17.994915824944364 -8.842907296572989 -1.316755345000982 10.000000000000000
15.654614128785729 -7.677470164260967 -1.187825922035690 17.000000000000000
15.095599096601960 -7.380337607324421 -1.227251364649184 25.000000000000000
14.222034375450427 -6.975742606794199 -1.227008696835242 18.000000000000000
13.780021790279594 -6.739289401062933 -1.264963424389848 22.000000000000000
12.420934454257784 -6.063669449880535 -1.344063996710770 22.000000000000000
6.676819354134396 -3.261915341234470 -0.901097903430385 5.000000000000000
6.139305351318428 -3.002231388725235 -0.941701089171099 16.000000000000000
5.857226014901873 -2.860156576238026 -0.999318667998069 11.000000000000000
5.809773953315702 -2.856894657298909 -1.110978490387834 1.000000000000000
5.673801005855318 -2.773026299872768 -1.190103774826385 4.000000000000000
5.786890521063889 -2.830706494595390 -1.860748214317804 9.000000000000000
4.024767138184137 -1.973549587834327 -1.770445788232294 6.000000000000000
10.254909815996854 -5.048447415006009 2.704223221683025 25.000000000000000
10.252437946051074 -5.083088615040637 2.081517421251408 22.000000000000000
13.602031970458818 -6.693069096760624 1.763036403674158 20.000000000000000
14.347874136199874 -7.080623407960587 0.967466951794216 19.000000000000000
16.305329820150288 -8.056384814047064 0.811771664097446 27.000000000000000
15.743454467774587 -7.754137441440861 0.590698435430650 4.000000000000000
16.136783791587145 -7.961203293242349 0.484942446773217 39.000000000000000
15.803615066525728 -7.817882480699453 0.432406286181781 21.000000000000000
15.753888029942356 -7.755541474944252 0.380532840858224 21.000000000000000
15.843869471276655 -7.838268435405610 0.326275119408425 35.000000000000000
15.719702392900009 -7.736367994441039 0.276140358551541 45.000000000000000
14.810928371232890 -7.286236263448160 0.238835328168665 9.000000000000000
15.457758324754533 -7.662937420397938 0.175031888167858 11.000000000000000
15.463564134157107 -7.630901058506183 0.123669440778800 11.000000000000000
15.740984235573093 -7.743823728054124 0.065348024778067 8.000000000000000
15.653759947461941 -7.731584836810299 0.014031915673249 17.000000000000000
15.698100187412734 -7.719797881186807 -0.038222967016521 10.000000000000000
15.797766631629459 -7.807386631598717 -0.096027000703970 19.000000000000000
15.961003914929115 -7.856845922614340 -0.154164714729639 17.000000000000000
37.004685161153745 -18.291724250942949 -0.883084006130961 18.000000000000000
27.504464873220485 -13.618690453276400 -1.354046041635701 4.000000000000000
25.302203146597829 -12.468822519978019 -1.371496217748008 3.000000000000000
23.375525703140362 -11.582862991767797 -1.389893871114247 4.000000000000000
22.536061669792083 -11.090922946346126 -1.395748697724051 3.000000000000000
21.203420654048156 -10.485725884620109 -1.428626185342824 2.000000000000000
15.652761417344603 -7.747366997784752 -1.086950593611161 0.000000000000000
17.968629907233701 -8.908804883151490 -1.318485023885029 10.000000000000000
15.604358253868199 -7.720194894192772 -1.186421872258053 21.000000000000000
15.202146818740186 -7.538755302603946 -1.196735751958737 30.000000000000000
14.965703483163132 -7.377993681580875 -1.216378004802018 25.000000000000000
14.233743075121080 -7.045534924169218 -1.232515445879440 26.000000000000000
13.965031609822894 -6.869308580090319 -1.245503587919532 21.000000000000000
13.834565298986062 -6.830144021515252 -1.276114224049059 18.000000000000000
12.306786774614144 -6.057140449825198 -1.331225454912533 25.000000000000000
6.625782681873010 -3.262642822968132 -0.893581543268981 5.000000000000000
6.116380468716938 -3.017011933669664 -0.939655027180866 19.000000000000000
5.818118530091531 -2.863873081258220 -0.992741807740673 14.000000000000000
5.720932594290239 -2.830140814053479 -1.089935652583691 6.000000000000000
5.621996058159202 -2.768112687504669 -1.178494857507641 0.000000000000000
5.774604165410401 -2.850291721507361 -1.861070840584209 10.000000000000000
4.012443664448819 -1.985004974007836 -1.768953790696265 5.000000000000000
10.252298390270377 -5.093205365675288 2.707328667480287 25.000000000000000
13.576452963422426 -6.739904014701949 1.762270116517271 20.000000000000000
14.324407413529107 -7.131971524361575 0.966770800072098 19.000000000000000
15.595129324938554 -7.746914911562598 0.798202817399508 4.000000000000000
15.830461269315181 -7.870828469571137 0.590417142059728 29.000000000000000
16.458799615083748 -8.170469873031507 0.539697320541430 19.000000000000000
16.332119510048404 -8.138121318808857 0.483698339098889 22.000000000000000
15.928892812450336 -7.955964388259403 0.430765476903341 24.000000000000000
15.766801113841382 -7.832581952614746 0.379299611424892 22.000000000000000
15.627586640618288 -7.792390290595932 0.327533448944958 24.000000000000000
15.069843465256366 -7.525206012096390 0.283174183149767 39.000000000000000
14.769161409370698 -7.329716419948113 0.238255688233887 18.000000000000000
15.944977464795469 -7.959441547657747 0.110063490531946 13.000000000000000
15.799722067054626 -7.845382530712129 0.061974434118417 17.000000000000000
15.652631659718512 -7.800740330067910 0.012256900451394 28.000000000000000
15.651244744874125 -7.764511064339530 -0.038494505890132 24.000000000000000
16.014736864230578 -7.994372913515690 -0.106370341684010 15.000000000000000
15.962891692789636 -7.928935190279816 -0.156382961862544 0.000000000000000
35.095084704230111 -17.487875486229953 -0.583140306955355 2.000000000000000
28.439236563609189 -14.171413912230008 -1.326503156471137 3.000000000000000
27.362451886137489 -13.665932525310524 -1.349356458582038 4.000000000000000
25.528757255293890 -12.698588327637339 -1.393218243708071 1.000000000000000
24.299207932413449 -12.107099956140885 -1.386833554249088 3.000000000000000
23.332606165531118 -11.663777018985556 -1.391213332473544 3.000000000000000
22.516079396845157 -11.180035222973018 -1.398816179571222 2.000000000000000
21.217281601102162 -10.587010971836222 -1.434665522030663 1.000000000000000
15.623287433541876 -7.801348909403842 -1.087832087486750 7.000000000000000
15.615619474202978 -7.761712360143761 -1.138478665895309 10.000000000000000
15.553992750783957 -7.762662926435368 -1.185013652387537 25.000000000000000
14.526159001778664 -7.240288807558031 -1.222081634969064 43.000000000000000
14.119405781255615 -7.047014757269238 -1.222615682409280 29.000000000000000
13.966605442882690 -6.932567275471030 -1.249809033637010 21.000000000000000
13.783893170995153 -6.864497418481079 -1.273735073039670 19.000000000000000
12.335423620788244 -6.128055364991354 -1.339731543426412 19.000000000000000
6.510422321401013 -3.255097463091801 -0.875663256101044 6.000000000000000
6.093422775011230 -3.031679185946572 -0.937607027128543 22.000000000000000
5.795749637971725 -2.877485312067435 -0.990476870803379 23.000000000000000
5.705370751784741 -2.847461112462085 -1.089325340033954 2.000000000000000
5.679391580284475 -2.829545373470864 -1.199681257104456 0.000000000000000
5.759024967163085 -2.867861959432545 -1.860067540572498 9.000000000000000
4.006115083960477 -2.000393993411123 -1.770890386010417 6.000000000000000
10.256346411915835 -5.141869458919402 2.711905486702352 24.000000000000000
10.256697596650364 -5.131843294848963 2.084660126265196 23.000000000000000
13.547210217699883 -6.784742805069172 1.761181614025161 20.000000000000000
14.311279805043000 -7.188995520997267 0.966413125352986 18.000000000000000
15.122173951348831 -7.627894191293151 0.788760253152103 1.000000000000000
16.353115710168741 -8.224184162990156 0.592383047854416 28.000000000000000
16.361117678037647 -8.191263717800126 0.538639945573972 18.000000000000000
16.297847802028240 -8.192574010819158 0.482783626867965 22.000000000000000
15.730137750349007 -7.919167175084084 0.430695394596702 17.000000000000000
15.849712518302495 -7.947910191031127 0.377484522499397 16.000000000000000
15.197417226990270 -7.628643271734873 0.331304327161664 24.000000000000000
14.978091510600644 -7.542718547797847 0.283270513698413 16.000000000000000
14.783519121203939 -7.403503560307414 0.236648055387253 24.000000000000000
14.700958862176373 -7.387842274548092 0.188470724921248 14.000000000000000
15.781342061483283 -7.941861914941100 0.112509476604797 23.000000000000000
15.639881832958141 -7.829480261615643 0.064769677482080 19.000000000000000
15.468476995855553 -7.770791909772598 0.016286292969928 27.000000000000000
15.892716998171474 -7.964802080438375 -0.048864090247483 18.000000000000000
15.995103014093738 -8.055339382084611 -0.107681128060996 11.000000000000000
36.953969785760648 -18.610219633597680 -0.645099999730497 3.000000000000000
36.941176099290793 -18.512397538291481 -0.763657636552678 15.000000000000000
30.161183207956750 -15.141525332205404 -1.337515855927622 3.000000000000000
28.288280496058736 -14.218003482240306 -1.321708184816497 3.000000000000000
27.344075318975428 -13.777504811752422 -1.353067769927392 4.000000000000000
25.210026460319568 -12.643930158601350 -1.374358291827187 3.000000000000000
24.385133785722555 -12.260161577068828 -1.398415935252478 2.000000000000000
23.317580581522186 -11.759534273225114 -1.394829985969746 4.000000000000000
22.471066210206128 -11.256089499495346 -1.399788386519913 2.000000000000000
21.177911063427782 -10.660399055142264 -1.435865146197160 2.000000000000000
15.576131826412469 -7.845706832635585 -1.086921364458277 19.000000000000000
15.565106118187854 -7.804179283665945 -1.137138763903297 25.000000000000000
15.479034663874705 -7.791563154243079 -1.180930630459482 25.000000000000000
15.236465909440437 -7.625289829384826 -1.204674782627377 25.000000000000000
15.035194386739734 -7.549477112557312 -1.232636578651817 23.000000000000000
14.130716461771419 -7.116713401450184 -1.228120893591841 20.000000000000000
13.901620294736404 -6.959695853373631 -1.245754642035489 18.000000000000000
13.774962617019435 -6.921528223700207 -1.276769075717666 17.000000000000000
12.269990212694236 -6.147456089121789 -1.334173037397446 17.000000000000000
6.469749591405240 -3.260944864095805 -0.870284371432887 6.000000000000000
6.070434400569400 -3.046225755246866 -0.935557226351726 18.000000000000000
5.780014843797118 -2.895055427646284 -0.989936509460160 35.000000000000000
5.673741713032012 -2.852814902848607 -1.201986114036301 1.000000000000000
5.753036465719093 -2.891300473747080 -1.863039304532728 9.000000000000000
3.990699750519614 -2.009771137856760 -1.767682159159014 6.000000000000000
10.260177102761906 -5.190630557296146 2.716480696395777 25.000000000000000
10.257288392690045 -5.178752585441174 2.087269976840923 22.000000000000000
13.521305906764754 -6.831395122814911 1.760418227045220 18.000000000000000
14.231387298355218 -7.209362635621190 0.963923026236429 20.000000000000000
15.307549852620811 -7.763065443702388 0.741083196994617 45.000000000000000
16.223822206159632 -8.226992755477170 0.590954764223941 21.000000000000000
15.369364686877258 -7.795252284335930 0.535129735056885 1.000000000000000
16.259880738150557 -8.244983848504461 0.481876374744612 13.000000000000000
15.482736219000778 -7.854143664067848 0.430890444872801 19.000000000000000
15.486125884787214 -7.820518698077706 0.379357797183634 19.000000000000000
14.972048133527791 -7.573447368105604 0.332743393086075 19.000000000000000
14.795264102210785 -7.509591441844634 0.284749259408048 25.000000000000000
14.772972872035680 -7.464059780638195 0.235489644690898 21.000000000000000
14.893487246451043 -7.560100065816457 0.182825108619637 47.000000000000000
15.649580703232182 -7.940547161274424 0.114178430825729 25.000000000000000
14.686949943597485 -7.445806767800377 0.088515441891238 1.000000000000000
15.400462355459986 -7.803021997514222 0.016643672735862 27.000000000000000
15.543118891934371 -7.845598730033274 -0.038533109817011 31.000000000000000
15.470083818021514 -7.840191854149609 -0.089492606685412 27.000000000000000
15.381913184688550 -7.823904525482206 -0.138473625794742 13.000000000000000
33.427177037354440 -16.977674142730095 -1.320107044801927 7.000000000000000
29.724311135749272 -15.044754006585919 -1.315813326212377 5.000000000000000
28.109109542206379 -14.248765931220390 -1.315068051160646 3.000000000000000
27.328775162891286 -13.890995857629164 -1.357020359928313 3.000000000000000
24.410398342428707 -12.382104746803435 -1.405318129294543 2.000000000000000
13.276873766074226 -6.748267904988083 -0.815646743745862 4.000000000000000
22.446906003458270 -11.343241376238652 -1.402554963197467 2.000000000000000
21.152330779972914 -10.741197498350303 -1.438354720776755 2.000000000000000
15.549801268474040 -7.901346139467222 -1.088157141229003 15.000000000000000
15.528461057863955 -7.854035370391955 -1.137275626650979 26.000000000000000
15.400571211791526 -7.818123676112464 -1.176459107984877 19.000000000000000
15.270359896087491 -7.712166609904031 -1.212619180002540 24.000000000000000
15.027427395150028 -7.612782715043082 -1.235914871680036 25.000000000000000
14.047773576812046 -7.134563629039761 -1.222061388050975 23.000000000000000
13.854021321806293 -6.996064008892489 -1.243896164228296 17.000000000000000
13.769276939652469 -6.980501420944137 -1.280255149988351 18.000000000000000
12.159532335002581 -6.141378696502144 -1.321831778644077 20.000000000000000
6.432473399340474 -3.268608153541464 -0.865619809772955 7.000000000000000
6.044071387939289 -3.058605743692695 -0.932708721974948 13.000000000000000
5.777521996801626 -2.920768848435287 -0.992849455914822 41.000000000000000
5.739434331290592 -2.895342425316372 -1.102654619744070 1.000000000000000
5.582406565612372 -2.822968148371757 -1.178438444953470 1.000000000000000
5.724487737666708 -2.900834871595748 -1.856732629776190 9.000000000000000
3.984265955401959 -2.025104945809929 -1.769617960653987 6.000000000000000
10.253550885248870 -5.233632420902225 2.718846991298816 24.000000000000000
10.261116219119817 -5.227694000048430 2.090409560640274 21.000000000000000
13.491753621966250 -6.876015185719055 1.759333196167972 18.000000000000000
13.405414945325683 -6.875446925436236 0.937607074765381 4.000000000000000
15.086215641083385 -7.676170603790325 0.787778743283787 4.000000000000000
15.372675160012591 -7.831977980570585 0.585869148217800 26.000000000000000
15.353926538284551 -7.855983477311611 0.534285564444698 22.000000000000000
15.510644618728966 -7.905201135554137 0.482156163756501 42.000000000000000
15.456490287451301 -7.909476723744220 0.430000198370708 10.000000000000000
14.898612096072837 -7.634141415110378 0.382071548086043 3.000000000000000
14.999343329199979 -7.656005183580191 0.331239243246326 39.000000000000000
14.864737077927691 -7.614867059590381 0.282429243322726 22.000000000000000
14.937297162798405 -7.621194410096265 0.231088445918499 25.000000000000000
14.640988967026493 -7.487142782450661 0.186893438717651 14.000000000000000
14.667551926470686 -7.468278643143819 0.137347172504816 3.000000000000000
15.193660312644676 -7.793172363398241 0.072351902227344 24.000000000000000
15.370914741600771 -7.856135043899286 0.015774448980134 25.000000000000000
15.387285618788834 -7.829914654775322 -0.034961622438713 26.000000000000000
15.282886350424032 -7.806721214344691 -0.084264557938991 25.000000000000000
15.382232603243688 -7.858179658377878 -0.192254571346505 0.000000000000000
33.320760167951697 -17.004074509419851 -1.207212866404439 18.000000000000000
33.125492300206567 -16.966245545478472 -1.308842298762076 11.000000000000000
29.623437601595999 -15.123410479992486 -1.314672902841068 5.000000000000000
28.035745112455672 -14.334895256043907 -1.315282504301411 3.000000000000000
27.165200114276118 -13.925339980670742 -1.350860673710365 4.000000000000000
25.457988657251782 -13.001027057474431 -1.402828489781026 1.000000000000000
24.392912934300202 -12.481730441939050 -1.408910953313805 2.000000000000000
23.263492675592317 -11.834588905341320 -1.395283309740600 4.000000000000000
13.197723624472532 -6.727866555012412 -0.853486377883410 5.000000000000000
21.849522258113289 -11.167503544932728 -1.430808546533760 2.000000000000000
15.502360493355281 -7.945319278968114 -1.087240248499632 8.000000000000000
15.491653209647122 -7.903742216641376 -1.137409977146725 22.000000000000000
