# This PCD file was generated using the MATLAB® pcwrite function
# from Computer Vision Toolbox®.
# .PCD v.7 - Point Cloud Data file format
VERSION .7
FIELDS x y z intensity
SIZE 8 8 8 8
TYPE F F F F
COUNT 1 1 1 1
WIDTH 642
HEIGHT 1
VIEWPOINT 0 0 0 1 0 0 0
POINTS 642
DATA ascii
16.030883039208135 6.486627995865085 0.046046622970581 12.000000000000000
15.411689796573837 6.261713298159179 -0.033107260862499 18.000000000000000
15.387879083687858 6.223184912830600 -0.080413933973358 16.000000000000000
15.457115059007437 6.278378828329931 -0.132614290103520 16.000000000000000
15.469211835748640 6.257261505214231 -0.178516838149297 18.000000000000000
12.942746213538637 5.241510974132741 -0.227563606858223 11.000000000000000
13.100248906320289 5.321487775286791 -0.279269352344760 5.000000000000000
13.297156299542474 5.374469107783089 -0.329996192321071 4.000000000000000
13.292417349239342 5.397471192288233 -0.372733244935068 4.000000000000000
13.371776788023578 5.399072478826323 -0.419494957433519 2.000000000000000
13.310417342413691 5.402057227973071 -0.458120543743911 4.000000000000000
13.374509806253778 5.398293105611309 -0.503769794864472 2.000000000000000
13.324828671341027 5.387969660955161 -0.581675632069947 5.000000000000000
13.323096105840181 5.412431612300963 -0.624950077273322 5.000000000000000
13.420476571717437 5.420308365593435 -0.674643775735252 3.000000000000000
13.474345840117353 5.437780472865636 -0.764198485781217 3.000000000000000
13.471880979965702 5.462284861414197 -0.808609874623302 3.000000000000000
13.483431525014629 5.448115764894094 -0.847908840770499 2.000000000000000
13.488302009284348 5.475311546921414 -0.892685421271032 2.000000000000000
13.618676475388284 5.494651259446073 -0.947780120325743 3.000000000000000
13.594817984104342 5.490260182109086 -1.200687619518653 11.000000000000000
12.458146173755491 5.042512901847115 -1.288911573758511 7.000000000000000
10.505824381388466 4.241482646872644 -1.363736516880985 4.000000000000000
9.510673321918087 3.833720197769296 -1.389607537321634 11.000000000000000
8.807753150420659 3.569027809523519 -1.410896871193448 14.000000000000000
3.271687350043091 1.324045000368507 -0.610917753072894 109.000000000000000
3.181474666367999 1.280232322770591 -0.972441562931114 3.000000000000000
0.482641077171179 0.192308732085806 0.118780754198027 0.000000000000000
9.616978865656433 3.859200958021194 1.460647393668434 55.000000000000000
16.036223228867097 6.441971728335151 1.001398947159442 11.000000000000000
16.028854680482088 6.444204624372613 0.699658265081153 11.000000000000000
16.021905715654132 6.442500852320059 0.598881428121433 11.000000000000000
16.034029781312782 6.415585505365954 0.547924605388952 12.000000000000000
16.025776480899843 6.444265088347848 0.498121087657194 13.000000000000000
16.022473736096970 6.411824769852643 0.446577431735253 12.000000000000000
16.025187225259366 6.385210222775445 0.398093413419418 13.000000000000000
16.035443038824592 6.420598398566270 0.347535432472932 14.000000000000000
16.016590428367717 6.382668865149530 0.297217503308788 14.000000000000000
16.019104060988223 6.415141204111013 0.246371471661388 15.000000000000000
16.015054280063545 6.382698381832206 0.196262911616952 12.000000000000000
16.013393870818181 6.413456381176694 0.145374965804928 13.000000000000000
16.030386139013238 6.392180084890452 0.097111496627935 12.000000000000000
16.020943853897641 6.420395968235777 0.046064077709337 13.000000000000000
15.532688609959070 6.244964634715163 -0.037604620774544 17.000000000000000
15.512564033344253 6.207720892529895 -0.085376717743803 15.000000000000000
15.326547125556125 6.111066615258604 -0.127144269525040 30.000000000000000
15.612764422693449 6.248101076747577 -0.184979587159441 18.000000000000000
15.576489794896894 6.265707229843617 -0.233788118577815 20.000000000000000
13.737989927692464 5.497001712608334 -0.231061569877442 2.000000000000000
13.573034414686271 5.412142713594239 -0.263805136450209 1.000000000000000
13.583408407101462 5.441023674488008 -0.308508657394214 2.000000000000000
13.441578593040102 5.373335435065393 -0.338922723402365 1.000000000000000
13.459419554064977 5.404559351638422 -0.383585494740874 1.000000000000000
13.527544443615284 5.401707971613206 -0.430026465073606 1.000000000000000
13.477377450413153 5.409163954219256 -0.469919061360333 1.000000000000000
13.537751435052991 5.403619955355722 -0.515748091927332 2.000000000000000
13.513547685066307 5.420508238452225 -0.558045414023584 2.000000000000000
13.476646585403103 5.389350118010320 -0.593613338249301 2.000000000000000
13.489931132479953 5.419385432361111 -0.638611205328297 2.000000000000000
13.557297990307461 5.416158351197932 -0.686096528572109 4.000000000000000
13.540238449310404 5.435436623841628 -0.728752845100709 3.000000000000000
13.641246970424028 5.444043873170550 -0.779270381565430 3.000000000000000
13.627469361336537 5.464890322743024 -0.823052707992547 3.000000000000000
13.635224669636392 5.448905976905017 -0.862373765374165 3.000000000000000
13.628806974152390 5.472390041693487 -0.906400159043865 3.000000000000000
13.691692612159013 5.467392011594399 -0.954595503069286 3.000000000000000
13.607726896381775 5.442021320447704 -1.200955679330717 14.000000000000000
12.458265504513680 4.994359354663175 -1.287417590839056 8.000000000000000
10.518123817097882 4.205348739307436 -1.364308969366604 4.000000000000000
9.514084902738672 3.798608391876506 -1.388626702406429 9.000000000000000
8.817707465929665 3.538825382391011 -1.411375995718086 14.000000000000000
3.273808413218666 1.313183236513343 -0.611092440169776 108.000000000000000
3.172696821637762 1.267746839708963 -0.967581058955156 2.000000000000000
8.440463877639367 3.357631026649660 2.285191295125588 0.000000000000000
9.616744304353928 3.822458673668557 1.459016710714775 55.000000000000000
16.029894683634627 6.377150701239614 0.999736926072106 11.000000000000000
16.018743026041690 6.378057366657174 0.698450334761982 11.000000000000000
16.030667840223110 6.383073723717168 0.597951628699260 12.000000000000000
16.031400406739884 6.352117833477397 0.547011180562467 13.000000000000000
16.019516433715520 6.379432752612047 0.497282921198705 12.000000000000000
16.023642702938812 6.349708136590152 0.445787140315323 12.000000000000000
16.026134663643735 6.323158111771466 0.397365191122024 13.000000000000000
16.036546940076498 6.358466188345947 0.346864564619239 14.000000000000000
16.021342871390019 6.321965286012393 0.296553867499444 14.000000000000000
15.993850059669033 6.343685810210214 0.246272644997654 14.000000000000000
16.016076678898866 6.320656793758573 0.195769275282972 12.000000000000000
16.010791375851419 6.350025499381026 0.145027533471534 13.000000000000000
16.035119430363043 6.331435048204611 0.096636629935420 14.000000000000000
16.029575317122568 6.360984849875752 0.045524518893479 13.000000000000000
16.013538638974094 6.324169313856938 -0.004344439046517 13.000000000000000
15.652395287905881 6.196789598045566 -0.090941298480323 14.000000000000000
15.217316192812602 6.012925651955669 -0.122562302800577 28.000000000000000
15.767741615436382 6.241994280293348 -0.191968153370543 16.000000000000000
15.347392736193502 6.063937870559116 -0.222518147241918 34.000000000000000
15.303901778395231 6.078138326335054 -0.268246717710255 25.000000000000000
13.739512466675279 5.442809160826421 -0.317770487764058 1.000000000000000
13.582374483118810 5.369949293721600 -0.347622383188873 2.000000000000000
13.607772987760022 5.403984838947427 -0.393188000715850 1.000000000000000
13.679714927760255 5.402007613475071 -0.440308805839476 2.000000000000000
13.633237479522919 5.411223710261762 -0.480903815735359 2.000000000000000
13.697416981795330 5.406571253659152 -0.527453837587710 2.000000000000000
13.676922020349645 5.425147516098182 -0.570507393386003 2.000000000000000
13.662552013846252 5.401451731120378 -0.608371103926606 2.000000000000000
13.630611244256849 5.416061004249489 -0.650024549059944 2.000000000000000
13.848671078060548 5.464593252434366 -0.711306563043870 6.000000000000000
13.733598431565021 5.450366595442514 -0.745807836612915 3.000000000000000
13.812112388526684 5.450520118324693 -0.794717237315341 3.000000000000000
13.835870660028871 5.484861500126009 -0.842700091192654 12.000000000000000
13.768365326728803 5.442188548671986 -0.874946086503145 4.000000000000000
13.750652945134677 5.462000256650253 -0.918161638207933 4.000000000000000
13.911317130868676 5.490512448760402 -0.977212275931252 23.000000000000000
13.601699153527749 5.387241444046175 -1.198851471049157 16.000000000000000
12.488181740163203 4.956553251303607 -1.290271970495590 8.000000000000000
10.545264208998612 4.174145607091845 -1.367562997328583 4.000000000000000
9.528574240514153 3.767153030690690 -1.389893906820986 8.000000000000000
8.827554286572575 3.508588389628333 -1.411855523435134 14.000000000000000
3.272166147593682 1.301616800863037 -0.609980212604813 109.000000000000000
3.171018964820600 1.256596541155751 -0.966073311232592 2.000000000000000
0.496806600191892 0.195125413610622 0.117167395488743 0.000000000000000
9.616366433085917 3.785757059886521 1.457386816384903 52.000000000000000
16.030849434254780 6.315096508635609 0.998301427074918 10.000000000000000
16.030999380180116 6.320016711980735 0.697493679238524 10.000000000000000
16.024117344783747 6.318334704648336 0.596950945985267 11.000000000000000
16.020971210225621 6.286088801734635 0.546087694755022 12.000000000000000
16.031852371637797 6.321378985834009 0.496417690122348 13.000000000000000
16.028342748419877 6.288995575067290 0.444981075876897 11.000000000000000
16.030617795205611 6.262482026602726 0.396608674680677 13.000000000000000
16.037408728393569 6.296401129004433 0.346195233093140 14.000000000000000
16.029639121055411 6.262616196454079 0.295837966415188 12.000000000000000
16.009795644171970 6.287060832605569 0.245463067038573 14.000000000000000
16.013082409799939 6.257342982766676 0.195352799379199 13.000000000000000
16.007937562224637 6.286697433352440 0.144682674562956 13.000000000000000
16.035844248990426 6.269408007218740 0.096262512736669 14.000000000000000
16.026664763712851 6.297616453112678 0.045321790736921 13.000000000000000
16.018057374216099 6.263526511113191 -0.004723489258118 15.000000000000000
15.358467363844621 6.033038731190143 -0.079550719309254 13.000000000000000
15.224583603874901 5.956392051267581 -0.122916582293967 36.000000000000000
15.262526715212514 6.004506025838605 -0.169103606359697 33.000000000000000
15.245281363798693 5.968945943117991 -0.217502425780718 40.000000000000000
15.232136219720637 5.993600279378064 -0.264414218565830 33.000000000000000
13.804620451540442 5.439832956246800 -0.276984730660203 2.000000000000000
13.914663374473990 5.450073053299619 -0.328200462447293 2.000000000000000
13.734640000565163 5.369506147864467 -0.357061250984310 2.000000000000000
13.767605475256175 5.406323983885144 -0.403566390488059 2.000000000000000
13.838316195782898 5.429144291130367 -0.495508105071494 4.000000000000000
13.923433276487991 5.457339495043982 -0.589603261006913 2.000000000000000
13.867566863744004 5.418758292774072 -0.624707277761848 2.000000000000000
13.873217154678132 5.446827392209418 -0.670193892405641 4.000000000000000
13.942288899900921 5.469196510228191 -0.764272367492899 22.000000000000000
13.999396518207403 5.487826291290062 -0.857919349331541 6.000000000000000
13.943061534250750 5.448770746679873 -0.891731608517769 5.000000000000000
13.925278353295246 5.468959568033487 -0.935447226647933 6.000000000000000
13.625505994045675 5.342871668881344 -1.200543189114771 13.000000000000000
12.566764534375348 4.935147739661218 -1.300199137641931 5.000000000000000
10.546084457212771 4.134183523695629 -1.366125847033286 6.000000000000000
9.546696892164567 3.736835190221544 -1.391911630832848 8.000000000000000
8.833561295549895 3.477127485915862 -1.411519073320438 13.000000000000000
3.268747898798603 1.278550219853557 -0.607754593636419 112.000000000000000
3.165720262602661 1.244843643993260 -0.962888119122423 3.000000000000000
9.615845534498060 3.749096661630990 1.455757718167385 58.000000000000000
16.039115893332305 6.255728719974147 0.997091075030756 10.000000000000000
16.031708877524149 6.258014287376007 0.696413082903330 10.000000000000000
16.021083407607115 6.255028264839030 0.595969951675763 10.000000000000000
16.029166666526425 6.226760873251347 0.545194969144903 11.000000000000000
16.032646255875278 6.259335405688539 0.495569666530459 11.000000000000000
16.025254692270913 6.225690902847919 0.444212145444951 10.000000000000000
16.038650754403001 6.203148111474590 0.395823560078006 11.000000000000000
16.045587108313509 6.237019680077463 0.345444329268970 12.000000000000000
16.026369961241546 6.199363545887174 0.295282413190579 12.000000000000000
16.010425116820258 6.225143195814884 0.244913879871813 12.000000000000000
16.009837660477594 6.194133514625786 0.194938912922552 12.000000000000000
16.016162803810275 6.227404071019617 0.144072750271013 13.000000000000000
16.040108228381964 6.208750088229070 0.095789509982790 14.000000000000000
16.031058434653485 6.236959160456919 0.044896228898212 14.000000000000000
16.014786155388013 6.200310314938566 -0.004853418232600 14.000000000000000
15.271341141752655 5.943344173177699 -0.076253186530349 21.000000000000000
15.224080527605199 5.897268505520632 -0.122950631958716 37.000000000000000
15.243199554373566 5.938728347981630 -0.168226629930307 41.000000000000000
15.244730314292800 5.909771830800086 -0.217418399586464 41.000000000000000
15.273243246096870 5.948793341635852 -0.266414295174858 27.000000000000000
13.976101990199821 5.445252064235699 -0.286694071508667 3.000000000000000
14.116482683583433 5.465194278924631 -0.340262976716402 2.000000000000000
13.904935166947016 5.399898084922743 -0.412438379368580 2.000000000000000
13.820716801132608 5.397425758530179 -0.449810740567784 2.000000000000000
14.236322447837304 5.511298128975994 -0.524280747909349 6.000000000000000
14.215778970544614 5.531397341824775 -0.566609279863343 6.000000000000000
14.234499083362627 5.509771329074550 -0.613841769568698 7.000000000000000
14.055802581348148 5.455417014291960 -0.685205077781835 3.000000000000000
13.967074096115274 5.451650086053995 -0.721118450302907 15.000000000000000
14.128639278806798 5.478915160558540 -0.780673244177175 4.000000000000000
13.994486224126883 5.459740433282629 -0.811257988174163 4.000000000000000
14.181948731756670 5.496145316974047 -0.875010540843630 4.000000000000000
14.130257966555567 5.485018758630687 -0.955902097591823 3.000000000000000
14.059736443006379 5.487642415077211 -0.992153281086582 3.000000000000000
13.675493569360382 5.307319857581490 -1.205560968353911 25.000000000000000
12.592747177763339 4.895597705409365 -1.302516605321784 3.000000000000000
10.595511139869762 4.110081847375113 -1.373406769771322 4.000000000000000
4.499514601968722 1.744556749963913 -0.611595388230026 0.000000000000000
8.843188698701853 3.446835526924986 -1.411999187480026 15.000000000000000
3.263241888746787 1.266392112849505 -0.605353606356885 117.000000000000000
3.151400355173797 1.220870290732186 -0.954838123972023 2.000000000000000
9.576350870133650 3.682861222398405 2.519810047101384 12.000000000000000
9.622777244442974 3.714879611826468 1.454866286598165 57.000000000000000
16.035815459417705 6.192475101829185 0.995545822349740 12.000000000000000
16.032177054809708 6.196078118936001 0.695333886904494 12.000000000000000
16.029143419907374 6.195723676284572 0.595042857833437 11.000000000000000
16.037139286799878 6.167441873782014 0.544302533824570 15.000000000000000
16.021856758858988 6.193450310781753 0.494742542461530 14.000000000000000
16.014351461254336 6.159874167932522 0.443481605618764 13.000000000000000
16.031315059284726 6.138669812040209 0.395158049888588 12.000000000000000
16.034624146556677 6.171164787916158 0.344901939912952 11.000000000000000
16.007709464752256 6.131035380148578 0.294942594619312 11.000000000000000
16.018378639435962 6.165886163857824 0.244235004037500 13.000000000000000
16.025263557701230 6.137485324017010 0.194140589634285 11.000000000000000
16.016603019207412 6.165518088462054 0.143641522958741 12.000000000000000
16.036570286735856 6.145550988416261 0.095518337033626 12.000000000000000
16.020092053187703 6.171149443953709 0.044921325296885 13.000000000000000
16.018832133469271 6.139769421864845 -0.005230352515856 13.000000000000000
15.323702450282086 5.902218813852425 -0.078420072846374 17.000000000000000
15.242262631162799 5.844658211954560 -0.123783739898378 28.000000000000000
15.242507863046120 5.879600441883081 -0.168201751958685 42.000000000000000
15.251515636463331 5.853235067084942 -0.217699709926943 42.000000000000000
15.302877224890921 5.899887208466748 -0.267832819490731 27.000000000000000
15.300430034176161 5.869256159824580 -0.316095561306475 39.000000000000000
13.913542907471207 5.376992806165383 -0.368208580388280 2.000000000000000
14.118064253749216 5.417992814373267 -0.426404301509690 1.000000000000000
14.022339140493996 5.412374796290202 -0.463575488314478 2.000000000000000
14.162335846936910 5.431580116924799 -0.518395631499438 2.000000000000000
14.274206395144699 5.496396820729696 -0.570565034133356 7.000000000000000
14.239969079899605 5.456790375858748 -0.613716794788023 6.000000000000000
14.065304830965841 5.432137739327676 -0.640440658405085 2.000000000000000
14.268841282215247 5.472953327997921 -0.702828546185032 6.000000000000000
14.195036227015491 5.475001532540404 -0.740675219724263 3.000000000000000
14.364310613767355 5.503932431780179 -0.801614129668345 28.000000000000000
14.207265947569859 5.477985242403072 -0.830689363777563 5.000000000000000
14.308121897886332 5.484131317466304 -0.886552082733257 1.000000000000000
14.166999794899915 5.470767789081801 -0.913501138954614 7.000000000000000
14.229876725806880 5.464156632195092 -0.965342912015027 0.000000000000000
14.366592529409466 5.537428984315884 -1.024136327433066 17.000000000000000
13.710331417092030 5.266427917602641 -1.208682479172915 27.000000000000000
12.622363835346688 4.857165416176173 -1.305380195484826 3.000000000000000
10.599832903238664 4.071227418278408 -1.372641680924305 4.000000000000000
4.476626778864725 1.723266511437131 -0.605171634372224 3.000000000000000
8.856448583883390 3.417668948960177 -1.413296649619571 14.000000000000000
3.265152162828866 1.255560164012632 -0.605527624717075 115.000000000000000
3.149543627208264 1.209844640567816 -0.953328289573564 3.000000000000000
8.466239527358667 3.238385123765301 2.281012840477077 0.000000000000000
9.618177702404006 3.677084380580013 1.452869972304050 55.000000000000000
16.039836664331563 6.131885721049613 0.994225480354064 11.000000000000000
16.036191109404658 6.135494746736725 0.694296802292858 11.000000000000000
16.025622749460673 6.132558802100181 0.594064601049020 12.000000000000000
16.029737815655558 6.102996004512523 0.543389751846758 14.000000000000000
16.018369322400371 6.130295465434425 0.493905046273911 15.000000000000000
16.014541142124987 6.098065509077990 0.442697937502431 12.000000000000000
16.027511937565055 6.075585928671334 0.394464642051953 13.000000000000000
16.030969681200382 6.108021781029013 0.344278417552330 12.000000000000000
16.015292524796052 6.071851451042924 0.294229943989092 13.000000000000000
16.014748729500170 6.102785093439813 0.243753566993112 13.000000000000000
16.021542155024644 6.074392549841690 0.193729071150040 13.000000000000000
16.009231285926003 6.101119553920675 0.143390249381814 13.000000000000000
16.044151438836050 6.086273481470521 0.094946756540452 13.000000000000000
16.008858030377379 6.105484079572616 0.044948934479918 13.000000000000000
15.999918950338186 6.071591578480295 -0.004859256080467 12.000000000000000
15.375958171755972 5.860792020158708 -0.080591435710754 26.000000000000000
15.252683566203975 5.789433125481072 -0.124297010994365 32.000000000000000
15.241585440889837 5.820541359451280 -0.168175562851033 45.000000000000000
15.261876360843191 5.797985919414760 -0.218164056075438 39.000000000000000
15.290717149761905 5.836766136734873 -0.267106968049360 29.000000000000000
15.314673553766349 5.815105199017729 -0.316723976100891 32.000000000000000
14.375330679881722 5.498100195852757 -0.355809159606717 0.000000000000000
14.130533354648428 5.395920963685594 -0.381794881140506 3.000000000000000
14.301172976028521 5.424580813127854 -0.438359424396096 0.000000000000000
14.209085867723488 5.420912811870625 -0.476298128402972 1.000000000000000
14.292418452344501 5.420477070021164 -0.527502937412752 0.000000000000000
14.230422720357497 5.426820909362856 -0.566718011981778 2.000000000000000
14.289775098403913 5.453033770056535 -0.658380284171573 7.000000000000000
14.311913870591415 5.432467370061719 -0.705877460401015 2.000000000000000
14.381744864670242 5.482906483696564 -0.756561600118654 22.000000000000000
14.314578059085243 5.459329527068260 -0.840085934571650 1.000000000000000
14.266631403667095 5.449611737666569 -0.922681129069175 0.000000000000000
15.070156084895865 5.717843753209124 -1.098740331191890 9.000000000000000
13.763896154387508 5.231595552983503 -1.214183362260188 25.000000000000000
12.614205321221826 4.806232985356651 -1.302801079428574 4.000000000000000
10.619045357941063 4.037143527914854 -1.374560810960119 4.000000000000000
4.476368303826215 1.707329927635644 -0.604459820547993 7.000000000000000
8.865864239420914 3.387297453443676 -1.413777735942806 14.000000000000000
3.267022622825838 1.244721606544072 -0.605701704664447 112.000000000000000
3.151230495659990 1.199409039337784 -0.953496015346067 2.000000000000000
9.593590396095589 3.615919301011100 2.517987575681081 11.000000000000000
9.621039577662083 3.641711861820500 1.451611115882371 55.000000000000000
16.028465279866001 6.066242208549902 0.992460352792674 11.000000000000000
16.024808891891752 6.069851441048002 0.693098007704756 10.000000000000000
16.029433647462209 6.072038488224639 0.593121881146109 10.000000000000000
16.033455096742387 6.042485337917054 0.542494186188050 12.000000000000000
16.026001406140949 6.071072666322429 0.493049291168676 13.000000000000000
16.010699287767544 6.035047929286186 0.441934338721661 12.000000000000000
16.031050792199888 6.015120361057114 0.393712522898804 13.000000000000000
16.027066070107210 6.044971288633267 0.343656594691717 13.000000000000000
16.015065088824738 6.010153160235376 0.293625767003173 13.000000000000000
16.003286867001183 6.037230445036723 0.243405477151023 13.000000000000000
16.013778833935799 6.010124910443920 0.193396915843991 12.000000000000000
16.009181777967040 6.039390660394986 0.142962035400495 12.000000000000000
16.040128522619202 6.023219728925650 0.094678349072966 12.000000000000000
16.020103111543239 6.047590841416024 0.044301869299275 12.000000000000000
16.007268492426469 6.012474840178282 -0.005357954913994 15.000000000000000
15.386408151440319 5.805115729948739 -0.081134926632234 28.000000000000000
15.251524474483439 5.730408288044167 -0.124328841410863 31.000000000000000
15.248015379635110 5.764079085742729 -0.168491061886520 53.000000000000000
15.260655706626778 5.738941123807180 -0.218077826999790 45.000000000000000
15.278299422863691 5.773796056118748 -0.266378399424601 28.000000000000000
15.324930932505445 5.759657763153196 -0.317145345640329 31.000000000000000
15.319523818103338 5.787430248113672 -0.363934752374419 40.000000000000000
14.332650179776607 5.408389540311777 -0.394434735612830 1.000000000000000
14.510097138253352 5.492173688718584 -0.634689268925293 1.000000000000000
15.394251632941545 5.791810524298938 -0.895650395110932 34.000000000000000
15.405255624375016 5.795432655855780 -0.993567013392993 36.000000000000000
15.084924016544862 5.693919949398222 -1.053659331215538 2.000000000000000
15.053594235672055 5.654512118689929 -1.095909948806221 10.000000000000000
13.768313242769866 5.180374446043977 -1.213507021666344 28.000000000000000
12.696318036605785 4.784719208079956 -1.313292888468740 2.000000000000000
10.641908099957565 4.004149192240948 -1.377152318088156 5.000000000000000
4.399799617750491 1.658755525548798 -0.583978241073204 7.000000000000000
8.875171812989027 3.356893274039859 -1.414259198217365 13.000000000000000
3.268853257019399 1.233874150967612 -0.605875885030902 114.000000000000000
3.145703380889706 1.187850695781311 -0.950307617894607 2.000000000000000
9.619957613130076 3.605195163999404 1.449984861099377 56.000000000000000
16.035800850291896 6.007045146840611 0.991253775575494 11.000000000000000
16.020751392052979 6.006877285971797 0.691982613701876 12.000000000000000
16.021628720877747 6.007767852537967 0.592129832247638 12.000000000000000
16.033144690776084 5.980756147420824 0.541594690415205 13.000000000000000
16.025823172287470 6.009329630548940 0.492207739846163 13.000000000000000
16.017996362339399 5.975905713763240 0.441115408791562 13.000000000000000
16.022959719444277 5.950947748592942 0.393052529719778 14.000000000000000
16.030508030737071 5.984516815192158 0.342951248862340 13.000000000000000
16.010799662390163 5.947270365306050 0.293077034533370 15.000000000000000
16.014334158074657 5.979380627468711 0.242663784854646 15.000000000000000
16.017150727764854 5.949740613185380 0.192833362359418 14.000000000000000
16.005098111889186 5.976463847135705 0.142624734006979 13.000000000000000
16.047252190344921 5.964009983587239 0.094108317546381 13.000000000000000
16.027339844325763 5.988415291668112 0.043767173091217 12.000000000000000
16.021990063303505 5.955877459704546 -0.006106107443997 14.000000000000000
15.396652914421260 5.749429770150588 -0.081678315359364 22.000000000000000
15.272914423376381 5.678952516506605 -0.125323367622982 25.000000000000000
15.258028736510839 5.708884736998126 -0.168977766239022 46.000000000000000
15.274392847393621 5.684958544746820 -0.218725304409307 43.000000000000000
15.265624935220249 5.710975587254634 -0.265647245037233 28.000000000000000
15.297034314494987 5.691730743312394 -0.315490895479481 29.000000000000000
15.322115217204702 5.729467376076496 -0.363895573024992 41.000000000000000
15.273483054357012 5.683587833898720 -0.410109439530671 34.000000000000000
15.292379463114685 5.695074676186550 -0.504523295754999 29.000000000000000
15.252498577878871 5.711239943583280 -0.549141786345231 18.000000000000000
15.298207762818015 5.696524659639298 -0.600845080561689 30.000000000000000
15.307326514628770 5.728921882154783 -0.648525377626308 30.000000000000000
15.345056791339113 5.711811850559595 -0.700629338116598 29.000000000000000
15.407858803736815 5.737615822863244 -0.799166291759404 37.000000000000000
15.393630962326474 5.762445831217565 -0.845722097480209 34.000000000000000
15.393051286312785 5.732373970507602 -0.894749839429398 32.000000000000000
15.408877749089568 5.767191965120556 -0.943292591890930 23.000000000000000
15.407900789022332 5.737195624383368 -0.992922743064863 37.000000000000000
15.258542965998696 5.722540369300777 -1.022120791758453 24.000000000000000
15.098477281204056 5.640550432372816 -1.054086708630810 4.000000000000000
15.089718920265531 5.608682991825251 -1.098760826524479 5.000000000000000
13.764979523089572 5.126731804784185 -1.211878593518887 31.000000000000000
12.721817521797666 4.744560057207888 -1.315619096068420 4.000000000000000
4.318964442988418 1.610489224314112 -0.562525781101308 6.000000000000000
4.357542922072515 1.634063507363354 -0.572777791516819 6.000000000000000
8.895627447492377 3.329815486827094 -1.417193754268145 14.000000000000000
3.263166511677633 1.221820246243222 -0.603473122363268 117.000000000000000
3.143720082040825 1.176882709139736 -0.948796776412686 2.000000000000000
9.591552630218105 3.543268684347424 2.512263588411176 10.000000000000000
9.626362268320598 3.571017669018456 1.449094640491215 59.000000000000000
16.035316365379984 5.945368896064902 0.989825674601770 12.000000000000000
16.027845806258203 5.947742086650152 0.690989619453162 13.000000000000000
16.021165336584463 5.946119593255442 0.591173083222012 13.000000000000000
16.021191598909368 5.915357843434482 0.540682669909676 14.000000000000000
16.017808413677837 5.945146691448553 0.491381651149931 13.000000000000000
16.017471383035186 5.914284038423261 0.440335488276476 13.000000000000000
16.029828759508391 5.891826588503811 0.392271281197447 13.000000000000000
16.026116667426088 5.921627709587053 0.342332448968905 14.000000000000000
16.017695668236094 5.888198396282924 0.292367013723010 13.000000000000000
16.009967693182407 5.916533138881327 0.242187102658086 15.000000000000000
16.005085304682915 5.884421503881232 0.192582194877691 12.000000000000000
16.008364416293904 5.916131566395062 0.142109422715846 13.000000000000000
16.027535593655990 5.896143789718007 0.094247090737566 13.000000000000000
16.015356143521334 5.923043493325363 0.043800124998777 14.000000000000000
16.017501883405689 5.893046274159964 -0.006228726664091 15.000000000000000
15.406692547760080 5.693722880082664 -0.082222324862159 21.000000000000000
15.278923645586568 5.622464799227270 -0.125675377868515 22.000000000000000
15.248838623518525 5.647482609322271 -0.168605639295530 48.000000000000000
15.276531466568635 5.627246856706286 -0.218820629274596 40.000000000000000
15.267887032536349 5.653263193099583 -0.265696528826471 29.000000000000000
15.276445598402313 5.626528184699765 -0.314247732979461 28.000000000000000
15.263747129913183 5.651671824345634 -0.360348379543058 38.000000000000000
15.283301904945954 5.628333366597079 -0.410481309178474 32.000000000000000
15.354998403621067 5.686671417353107 -0.459469249694689 27.000000000000000
15.302149868735061 5.639762823113070 -0.504847025673139 32.000000000000000
15.292702402814772 5.665964819730196 -0.551570269993014 36.000000000000000
15.330793572799939 5.648589254218336 -0.602792708279476 22.000000000000000
15.328656106523272 5.677249502174018 -0.649651771774440 22.000000000000000
15.404268654567806 5.672370559031176 -0.704788031888699 22.000000000000000
15.361394948186827 5.693060580179672 -0.745607544749196 29.000000000000000
15.429147662376787 5.685593528050219 -0.800330391427189 27.000000000000000
15.411233653922647 5.709242086006849 -0.846561459887639 26.000000000000000
15.452248623371066 5.692733719758216 -0.899421847475887 16.000000000000000
15.418961578278921 5.711441843526135 -0.943415787333804 28.000000000000000
15.527702129139627 5.717282586413283 -1.003805074066845 19.000000000000000
15.328947231071654 5.687092108248297 -1.028308914989485 27.000000000000000
15.096695161666277 5.582227240548512 -1.052935426352550 3.000000000000000
15.076480863742816 5.546745714065676 -1.096333533455260 2.000000000000000
13.814395332554790 5.090104200349135 -1.216912041818944 29.000000000000000
12.758521720672837 4.707852584092059 -1.319582698966033 9.000000000000000
4.303083694724108 1.591981756762152 -0.557990160074828 6.000000000000000
9.634497719234567 3.547449262305580 -1.400289671305571 3.000000000000000
8.900974106253440 3.298189225797920 -1.416859236692641 14.000000000000000
3.262877718023252 1.199576188566329 -0.602531989963050 116.000000000000000
3.143220862893587 1.155523887768013 -0.947452780592613 3.000000000000000
8.505349561538941 3.123279983938843 2.279951421800771 0.000000000000000
9.625005235910560 3.534562648907713 1.447469642916844 58.000000000000000
16.034592943557811 5.883746618693678 0.988397971218449 13.000000000000000
16.027110069502633 5.886137824183798 0.689916152987667 13.000000000000000
16.012855690357107 5.882064222555275 0.590184911969253 12.000000000000000
16.020389952229234 5.853804886015517 0.539786451528828 13.000000000000000
16.024748575212627 5.886034184824762 0.490527846852082 14.000000000000000
16.020512141361177 5.853965899271440 0.439537523589594 15.000000000000000
16.025051318445037 5.829067666964825 0.391583926120096 14.000000000000000
16.044312178740409 5.866218370562155 0.341459469688558 13.000000000000000
16.024370513683479 5.829142548059988 0.291657496666990 14.000000000000000
16.009158486632476 5.855014118283393 0.241645728006738 13.000000000000000
16.011785950669040 5.825402293964157 0.191943051285949 14.000000000000000
16.007597490829344 5.854605589841881 0.141685200938885 13.000000000000000
16.030379003497636 5.835834918773571 0.093781012408888 13.000000000000000
16.022128134221809 5.863976835456342 0.043268198511802 14.000000000000000
16.008961198212514 5.829084861866701 -0.006224214244662 14.000000000000000
15.462173103223906 5.652758923523738 -0.084553703403951 13.000000000000000
15.326576905659786 5.579447108929589 -0.127799124085597 15.000000000000000
15.285053951477867 5.600905585667800 -0.170295982106405 34.000000000000000
15.282255055071577 5.570799454891123 -0.219099360283079 43.000000000000000
15.273730908800092 5.596822404770741 -0.265940827677100 30.000000000000000
15.297423903523454 5.574942044788461 -0.315289846882205 25.000000000000000
15.281028310615103 5.598923689822612 -0.361181752601403 32.000000000000000
15.406961136963139 5.609755083488761 -0.417803330134565 13.000000000000000
15.319106009096373 5.616472173095229 -0.456907324325362 41.000000000000000
15.406753264289108 5.614897758650933 -0.511541390208089 14.000000000000000
15.332771557551723 5.620470105451101 -0.554001951035527 19.000000000000000
15.481000048031117 5.638301143553964 -0.613374951932292 18.000000000000000
15.376378112507560 5.634097457396940 -0.652807215724952 15.000000000000000
15.520337032182569 5.650912914075366 -0.713482315125445 18.000000000000000
15.416672387838181 5.652202299536611 -0.749572170891665 30.000000000000000
15.541367644727671 5.662707416291862 -0.809295802426281 19.000000000000000
15.496919197733249 5.678032491826670 -0.853457554344590 17.000000000000000
15.587222876774378 5.677119400412451 -0.911071557864887 8.000000000000000
15.534961407182168 5.690058112691101 -0.953612519279073 18.000000000000000
15.422020973873567 5.658561962490996 -1.036799634228509 19.000000000000000
15.071946741339859 5.516676243008462 -1.049413102174662 6.000000000000000
15.070572040398403 5.487383037584941 -1.094716485852767 2.000000000000000
13.909162464414869 5.067539508506364 -1.227663989423541 20.000000000000000
12.783773077499765 4.667397602823428 -1.321913140112444 6.000000000000000
4.267276181475056 1.554559459633701 -0.547959234429057 6.000000000000000
9.651894276392575 3.516567369391520 -1.402315481426192 3.000000000000000
8.906204629659271 3.266569681325212 -1.416524220521183 13.000000000000000
3.260798391329339 1.188183808731829 -0.601416655902023 115.000000000000000
3.137518839618739 1.144094098574516 -0.944262244473715 2.000000000000000
8.513929481585491 3.094146088699386 2.279490208190881 0.000000000000000
9.631151238055692 3.500394566588035 1.446579861051341 52.000000000000000
16.033630873255873 5.822208054419605 0.986972505277813 13.000000000000000
16.029944424349384 5.825839069074995 0.688884737455953 14.000000000000000
16.030946038934037 5.826702255328183 0.589312058152769 13.000000000000000
16.019350086312684 5.792307130966403 0.538890665032072 14.000000000000000
16.023853101142599 5.824495603313292 0.489690290472527 15.000000000000000
16.023323152799293 5.793690648798453 0.438740498041097 13.000000000000000
16.035277875423866 5.771243583853771 0.390774177923990 15.000000000000000
16.031832235987384 5.801006301759159 0.340928634638442 15.000000000000000
16.027012850168774 5.768891564750852 0.291003252967204 13.000000000000000
16.004302336740334 5.792330390717090 0.241171436023375 14.000000000000000
16.014455395636094 5.765185380851165 0.191382905786654 13.000000000000000
16.014207475090931 5.795593950139878 0.141081593199762 13.000000000000000
16.032992897267359 5.775569663149081 0.093315855160292 15.000000000000000
16.028679079861195 5.804926745506378 0.042736776533427 14.000000000000000
16.019214021879112 5.771309849908775 -0.006845474611805 14.000000000000000
15.923343495856219 5.771006454930323 -0.053556433839759 13.000000000000000
15.416014220274331 5.549461642594807 -0.131701474271145 11.000000000000000
15.263997423237107 5.535978617301609 -0.169404079434218 35.000000000000000
15.306815456829021 5.520397330337826 -0.220300377294237 22.000000000000000
15.332656122066203 5.557380788711118 -0.268931026720384 15.000000000000000
15.436265486106036 5.560708775079760 -0.322786241299793 10.000000000000000
15.286709239229950 5.542470464825975 -0.361356858360147 19.000000000000000
15.580144947207238 5.606097049982047 -0.428152198128317 11.000000000000000
15.339978436399148 5.564740806810015 -0.457983525120472 26.000000000000000
15.515169521681681 5.590567165650686 -0.518501038665786 14.000000000000000
15.479173158185819 5.608709450375468 -0.563900475267481 16.000000000000000
15.692168660194371 5.646350584222677 -0.628429784596136 8.000000000000000
15.518982304785402 5.621040571561995 -0.663217083124181 18.000000000000000
15.540242083377487 5.632798319724049 -0.759177057743109 20.000000000000000
15.692683709070835 5.681434802606177 -0.870124744891834 7.000000000000000
15.840707814826217 5.728625580866428 -0.981821096342017 5.000000000000000
15.053639221614660 5.425130159233717 -0.997854710419181 0.000000000000000
15.088657043658975 5.464596289707657 -1.050233592110413 9.000000000000000
15.079607848409175 5.432907440680722 -1.094724481467940 2.000000000000000
13.969814132718021 5.033720985062036 -1.234137693522720 16.000000000000000
12.789961096569778 4.620972440013880 -1.321517750679529 9.000000000000000
4.243535573576404 1.534916491148106 -0.541509373146680 6.000000000000000
9.661642848631598 3.483418609969785 -1.402839390268029 3.000000000000000
8.911319033802501 3.234945204931627 -1.416189148840532 14.000000000000000
3.258675516500291 1.176811831767282 -0.600300966998409 115.000000000000000
3.146157930133143 1.134692349771090 -0.947787201794808 3.000000000000000
8.741515452633408 3.134207912181907 1.839488123653806 2.000000000000000
9.635407868058115 3.429834407415523 1.444066349170114 58.000000000000000
16.036242676596153 5.761946683913248 0.985658750344929 13.000000000000000
16.028736373106387 5.764375544231452 0.687814638634143 13.000000000000000
16.029779971050701 5.765221794093375 0.588358689635374 13.000000000000000
16.021886288801277 5.732100048639516 0.538001140789212 14.000000000000000
16.034153708767406 5.766668166225521 0.488831001454473 14.000000000000000
16.025904756656590 5.733459147771114 0.437944423503389 12.000000000000000
16.030024787148268 5.708626050533844 0.390089509906586 15.000000000000000
16.034345771323071 5.740761175250430 0.340228119821610 16.000000000000000
16.025610279127637 5.707481397777560 0.290404613506962 14.000000000000000
16.014452331918509 5.734584708152372 0.240432398406314 15.000000000000000
16.016895761884602 5.705012736079247 0.190823712659669 13.000000000000000
16.012973105968456 5.734181197617335 0.140659678363404 14.000000000000000
16.031562236696441 5.714152012350642 0.092953573797976 14.000000000000000
16.023571512438028 5.742279756009239 0.042547585146678 15.000000000000000
16.021626906681401 5.711122544994932 -0.007215332992033 15.000000000000000
15.998195980654289 5.734062793630176 -0.056489089862946 14.000000000000000
15.315112534753970 5.494005136443825 -0.171787030573600 16.000000000000000
15.540969625574888 5.535426817500515 -0.231665535604225 10.000000000000000
15.532488870638167 5.561964808837118 -0.279192952039304 10.000000000000000
15.482621957749881 5.546124435406092 -0.372524473955797 11.000000000000000
15.505410825533099 5.558414602919111 -0.468298221191882 21.000000000000000
15.743678471891021 5.633160806521413 -0.582083888259006 9.000000000000000
15.924169584494534 5.689946541562552 -0.693666827560377 10.000000000000000
15.921503073837775 5.719389948441084 -0.744855300944447 11.000000000000000
15.888288756512406 5.683197100136294 -0.787278101299423 11.000000000000000
15.912042915645930 5.720996221875495 -0.840386896696621 12.000000000000000
16.010292705706359 5.721886564537652 -0.897591966136479 14.000000000000000
15.988113587294052 5.745083248682612 -0.947148890497629 12.000000000000000
15.994963180857182 5.717088141864593 -0.995653341694497 16.000000000000000
15.987532167673871 5.745215951360912 -1.047197213194649 18.000000000000000
15.101385137368457 5.411268058203841 -1.050659400283047 12.000000000000000
15.084644373172191 5.377247333429636 -1.094325182321287 3.000000000000000
14.003827464701823 4.991341270796582 -1.237280974814789 25.000000000000000
12.826300547828799 4.583794825897648 -1.325487944687246 4.000000000000000
4.231144366310643 1.517683167920001 -0.537919602517984 7.000000000000000
9.678826827029546 3.452401713331287 -1.404866726438628 3.000000000000000
8.923851699340990 3.205450336489129 -1.417490804108106 14.000000000000000
3.252760889766591 1.164922070621188 -0.597895471446971 111.000000000000000
3.158363363039606 1.125718542098458 -0.952992226017383 3.000000000000000
0.502555842946709 0.178181730470989 0.108465181136361 0.000000000000000
9.629669446662890 3.392427904124514 1.442077391678902 56.000000000000000
16.034809118435074 5.700536119637320 0.984235762348513 13.000000000000000
16.023473661752920 5.701788060512797 0.686706492319025 13.000000000000000
16.028376260364496 5.703807529426982 0.587406375125412 13.000000000000000
16.020375405779408 5.670745319057751 0.537108788588248 13.000000000000000
16.015919996507368 5.639116204978809 0.487193926411103 13.000000000000000
16.012988286356528 5.668491973134994 0.437229366653429 13.000000000000000
16.039810141225477 5.650838602146717 0.389280809765001 13.000000000000000
16.036630258928117 5.680560913313201 0.339528549176439 14.000000000000000
16.016330725131123 5.643777057781609 0.289918000596406 14.000000000000000
16.016755765091080 5.674443952485149 0.239827614847488 14.000000000000000
16.015288667376218 5.643697310002700 0.190344375188973 13.000000000000000
16.011501398642963 5.672839682773063 0.140239143956483 14.000000000000000
16.033713972343875 5.653989891154875 0.092490502545053 13.000000000000000
16.018218243866357 5.679730862893550 0.042360169620597 14.000000000000000
16.023811055937024 5.650985256079881 -0.007583932010918 14.000000000000000
16.000490709420315 5.673975903194833 -0.056809981137503 14.000000000000000
15.558813127161311 5.535658249448726 -0.137873910868994 10.000000000000000
15.507340750943934 5.495536838720334 -0.180566182820092 10.000000000000000
15.824093367853735 5.593686073391630 -0.294193434068808 11.000000000000000
15.747373710753971 5.569860976147229 -0.387673609320082 11.000000000000000
15.225192487974779 5.377661558074294 -0.406160640963728 1.000000000000000
15.697670508637895 5.559278867552752 -0.480332882303125 12.000000000000000
15.958864734659715 5.670399214005784 -0.547932957431924 10.000000000000000
16.023777387257606 5.660573355195837 -0.601362622959600 12.000000000000000
16.002570066446797 5.684021717830515 -0.650756544472664 12.000000000000000
15.998683664829718 5.652713923773732 -0.698892111039654 13.000000000000000
15.996089305124469 5.682282013625507 -0.750261401936720 13.000000000000000
16.008382730808329 5.660219470906750 -0.796606354923192 11.000000000000000
16.009368161894020 5.690996310705593 -0.848086864377337 12.000000000000000
15.993490893669131 5.655860752824626 -0.895430420543365 14.000000000000000
15.979047228204777 5.681452460764156 -0.945577668958194 15.000000000000000
15.974403092030574 5.649910381402467 -0.992921808187925 16.000000000000000
15.822781787966612 5.607278448615766 -1.074596027990606 13.000000000000000
15.113920882034041 5.357906583931939 -1.051085607225382 15.000000000000000
15.085669414080936 5.320438451097978 -1.093518243832083 6.000000000000000
14.037710683723210 4.948776789967717 -1.240426930277273 24.000000000000000
12.854942845333065 4.544127011272060 -1.328369285631469 3.000000000000000
4.206146572788719 1.483506676726083 -0.530735398506146 7.000000000000000
9.695907773255680 3.421298631682436 -1.406895264403806 3.000000000000000
8.928741271742821 3.173790933508538 -1.417156014196893 14.000000000000000
3.265549947043943 1.155695764939658 -0.601937635890092 113.000000000000000
3.156140976898421 1.114782030034146 -0.951480673158301 2.000000000000000
8.861681051195092 3.102458752891252 1.854043927743147 13.000000000000000
0.536155741961549 0.187444227724558 0.105305438450670 0.000000000000000
16.029318094431876 5.638017203911399 0.982704177379893 14.000000000000000
16.033250507217328 5.644026436281592 0.685756881563343 12.000000000000000
16.030555911000988 5.643654459317140 0.586471277043115 12.000000000000000
16.037738971191132 5.615358348216034 0.536235685521126 13.000000000000000
16.021718552335976 5.580223751554055 0.486345435698312 12.000000000000000
16.011274169643393 5.607207731528568 0.436455372518852 12.000000000000000
16.045558399037489 5.591874517745829 0.388503895211252 12.000000000000000
16.034863534512635 5.619226495440653 0.338873266977706 15.000000000000000
16.006798061720787 5.580198874832423 0.289433606196610 14.000000000000000
16.015009274882338 5.613168863045384 0.239291072551213 15.000000000000000
16.021090628794965 5.584803680476533 0.189708230969939 13.000000000000000
16.017433150069550 5.613920899135152 0.139637091599229 14.000000000000000
16.043284525656105 5.596214382837900 0.091823670268761 14.000000000000000
16.027903346210334 5.621991065785465 0.041717105040416 13.000000000000000
16.021944665954695 5.589721367622587 -0.007825349414759 15.000000000000000
16.017834508208377 5.618656615410167 -0.057682051293227 15.000000000000000
15.965773709366868 5.572594222412679 -0.105016907771227 14.000000000000000
15.762780181067665 5.539828695759059 -0.146649592065972 11.000000000000000
15.898450483668924 5.556652294345820 -0.198359007032711 12.000000000000000
15.821223583596511 5.563017687243253 -0.245275043764422 10.000000000000000
15.963335249460229 5.576514484715091 -0.301352618556364 18.000000000000000
16.004209775405709 5.619239017863944 -0.353675536556194 15.000000000000000
16.023922716123163 5.595332803224846 -0.403511363144227 15.000000000000000
16.042803719753696 5.605679710870636 -0.502127534450261 15.000000000000000
16.006640883576313 5.624647559155736 -0.550845129312048 11.000000000000000
16.006689596742774 5.594616656325353 -0.599830501693695 12.000000000000000
15.997047948362074 5.621610936355562 -0.649954456111667 13.000000000000000
15.832938161410649 5.541006994529415 -0.685813979137201 19.000000000000000
15.990612229023224 5.619866400935958 -0.749319798490518 13.000000000000000
16.010327385298016 5.600189944337409 -0.796221802496579 13.000000000000000
16.011452980561668 5.630929872044103 -0.847655659919517 12.000000000000000
15.381016301954118 5.377254742691722 -0.889318520926828 30.000000000000000
15.962115934530695 5.615587025324725 -0.943305839083771 14.000000000000000
15.381038284948950 5.377025854454796 -0.985308742370802 32.000000000000000
15.961567447477673 5.589996555808700 -1.087733170641412 15.000000000000000
15.078864084623424 5.261363359418372 -1.091895769909393 11.000000000000000
14.082872662914243 4.909458666878283 -1.245006511925223 23.000000000000000
12.898653528629554 4.508821663100438 -1.333437404195630 3.000000000000000
4.193541055719383 1.466559225075514 -0.527141056036962 7.000000000000000
9.709101314593175 3.389053249524181 -1.408173065822190 2.000000000000000
8.937289172243197 3.143168557714080 -1.417639956230925 14.000000000000000
3.263302338795313 1.144346651181689 -0.600821476943293 114.000000000000000
3.157478248618822 1.104323951496063 -0.951648407478797 3.000000000000000
0.502190134965344 0.174069001762398 0.106710039823391 0.000000000000000
9.625432300042478 3.319945072762764 1.438835646320535 51.000000000000000
16.027406585732503 5.576764874069376 0.981284132821112 15.000000000000000
16.017703897319816 5.518084540970740 0.683508940727734 13.000000000000000
16.018915152278119 5.518856367936987 0.584543504820707 12.000000000000000
16.031948894270553 5.552916640527318 0.535341703438417 12.000000000000000
16.023469279934840 5.520188672304283 0.485505894024541 14.000000000000000
