# This PCD file was generated using the MATLAB® pcwrite function
# from Computer Vision Toolbox®.
# .PCD v.7 - Point Cloud Data file format
VERSION .7
FIELDS x y z intensity
SIZE 8 8 8 8
TYPE F F F F
COUNT 1 1 1 1
WIDTH 641
HEIGHT 1
VIEWPOINT 0 0 0 1 0 0 0
POINTS 641
DATA ascii
9.634996789027387 16.189017535539186 -0.593232261555401 8.000000000000000
9.524222030283138 16.074476330193647 -0.636573049616199 11.000000000000000
9.646699441356887 16.219643722905374 -0.704895461299444 9.000000000000000
9.514606026173453 16.041318821410812 -0.741895273897585 25.000000000000000
9.628663944219667 16.172558676886595 -0.809756396773870 9.000000000000000
9.532126734856305 16.081358996720013 -0.853680151684468 11.000000000000000
9.625457810788824 16.178037950085979 -0.919667435856047 10.000000000000000
9.636154171304447 16.206991410304930 -1.031759227402394 11.000000000000000
9.499640979636041 16.021344358076504 -1.063500094078951 27.000000000000000
9.602628458407658 16.134578806114867 -1.132660638358712 11.000000000000000
9.520319498555367 16.066550617028184 -1.176275600263191 11.000000000000000
9.569447442309855 16.033958174482422 -1.824508681970774 8.000000000000000
7.533909233272634 12.620418992397823 -1.787088358888312 15.000000000000000
6.613965601189552 11.132328770783843 -1.767797680365669 8.000000000000000
5.908042240688752 9.916045110905301 -1.712182226381049 15.000000000000000
4.986652351975237 8.375703504059317 -1.688531620663537 6.000000000000000
3.588967926871017 6.020273783453248 -1.675580911213386 9.000000000000000
9.896648848429386 16.477494190732649 4.475379191117866 6.000000000000000
9.858263477877994 16.429519233663228 3.451743730846708 8.000000000000000
9.796119747192794 16.352160735145134 1.772520322198186 8.000000000000000
9.737358133962793 16.254569603172172 1.213175515528234 9.000000000000000
9.719290242538868 16.229861220038472 0.882644777433570 10.000000000000000
9.806410427987533 16.337806226584505 0.610050275597769 8.000000000000000
9.704452174389598 16.210379689669672 0.554088460275335 8.000000000000000
9.769183530249055 16.259735142084111 0.498899185258426 10.000000000000000
9.736540187128213 16.274063667288878 0.444694101727304 9.000000000000000
9.774178015553222 16.278804538621451 0.388806396125343 10.000000000000000
9.672353307703276 16.180482805420887 0.336091859587256 8.000000000000000
9.799484854084582 16.331250102007623 0.278229387317911 9.000000000000000
9.686573906196131 16.186179721622061 0.226176518650352 9.000000000000000
9.752830310663505 16.237999351587462 0.168944766169014 9.000000000000000
9.707196164165151 16.230991722165300 0.115332485455687 9.000000000000000
9.771501055404720 16.278973145586463 0.058176766269459 10.000000000000000
9.673393906301108 16.186841945613359 0.007579142071062 8.000000000000000
9.791581339990277 16.323095697043421 -0.053355766373118 9.000000000000000
9.665691440454637 16.156851295200511 -0.100325993264985 9.000000000000000
9.743926499888666 16.228254409126293 -0.160121816346525 9.000000000000000
9.704107339954064 16.230627543901555 -0.213413532293985 9.000000000000000
9.759486887199348 16.264137360229242 -0.271303226320830 10.000000000000000
9.646387099514325 16.147441284921513 -0.317757163036065 8.000000000000000
9.803639865810503 16.347270746153370 -0.386066978323599 9.000000000000000
9.623004833162007 16.091977277315749 -0.423823661363848 11.000000000000000
9.773897092512680 16.281240384463764 -0.492471264774973 8.000000000000000
9.693828398211920 16.218531640668772 -0.541114066654929 9.000000000000000
9.782098145329943 16.305397135385242 -0.604212492170885 9.000000000000000
9.689375615287656 16.222048792649048 -0.650291357669443 9.000000000000000
9.797989114755314 16.342786468602775 -0.717428029468014 9.000000000000000
9.675543546433975 16.181936209252981 -0.756314369000452 9.000000000000000
9.771475474151671 16.282011770442018 -0.822227401115657 9.000000000000000
9.686830538697794 16.211704247981750 -0.868402581199753 10.000000000000000
9.789080912370473 16.321465661941303 -0.936203492331823 9.000000000000000
9.691798470765736 16.230651812362645 -0.979075498152255 10.000000000000000
9.797663367574700 16.346969118351616 -1.049174744293257 9.000000000000000
9.658239576208825 16.158394016031501 -1.081146354299846 10.000000000000000
9.761851457320514 16.271077594725455 -1.150910778501014 9.000000000000000
9.685189139087068 16.213693345834301 -1.196181349291754 7.000000000000000
9.697172255084165 16.237860655378995 -1.527249317059713 1.000000000000000
9.640558425422547 16.027931426722859 -1.829045019400975 9.000000000000000
7.580623851656239 12.601212418281449 -1.788742548147504 15.000000000000000
6.663789369589517 11.129694669417454 -1.772403317882786 7.000000000000000
5.947409359477797 9.905796665722335 -1.714821662465008 19.000000000000000
5.008172018600324 8.348812712749002 -1.686066365447014 6.000000000000000
3.606447258644772 6.004941931052016 -1.674527038062329 8.000000000000000
10.058267713404156 16.612937285594327 4.516712325376560 6.000000000000000
10.022673443785113 16.570120391022101 3.483283584405165 7.000000000000000
9.954807528913953 16.484592535546511 1.785156399315702 8.000000000000000
9.893749277524478 16.384033535778599 1.219889924007110 9.000000000000000
9.875606095832271 16.359484590226280 0.885963755596038 9.000000000000000
9.868395184640114 16.370610995965642 0.665995406995613 10.000000000000000
9.963232107222140 16.467135280788959 0.610542739967376 9.000000000000000
9.864891285658764 16.346905622690009 0.554035159826253 10.000000000000000
9.930052476102691 16.395884392502190 0.498248602703970 9.000000000000000
9.892918983059253 16.403732228374167 0.443493695130365 10.000000000000000
9.937147448141875 16.418393696701742 0.386950907423577 10.000000000000000
9.838454134315512 16.309158695546749 0.222835227524675 8.000000000000000
9.905124783339673 16.360601797786188 0.165047433022848 9.000000000000000
9.863361800064364 16.360740991334389 0.110732678854054 10.000000000000000
9.940722834641811 16.428736117627579 0.052420329573141 9.000000000000000
9.821596231743143 16.286650514961927 -0.107179686453901 8.000000000000000
9.904533308049221 16.364408807335145 -0.167847984900597 9.000000000000000
9.922229877785714 16.403659132494369 -0.280368453941870 9.000000000000000
9.778567892902700 16.221816304591506 -0.434063214891959 9.000000000000000
9.945096049724672 16.434142386069354 -0.504798958817897 8.000000000000000
9.955364632839515 16.461670471689807 -0.618065162446297 9.000000000000000
9.824978687968809 16.301255217409867 -0.769108761845189 9.000000000000000
9.936194937648356 16.424556419251992 -0.837562022376481 9.000000000000000
9.861418218592437 16.371704836525240 -0.885807342503712 9.000000000000000
9.953815373074789 16.463939279099066 -0.952753801182187 9.000000000000000
9.817904309797150 16.294531557337280 -1.098806788480312 9.000000000000000
9.917936809267626 16.399879835923379 -1.168464490768617 8.000000000000000
9.838640504631687 16.339541356917039 -1.213903563912758 5.000000000000000
9.854671946649209 16.370169123899878 -1.549115154149458 2.000000000000000
9.703358717974055 16.008122323786282 -1.831565829092406 9.000000000000000
7.629388928720332 12.585173553203838 -1.791031021285244 15.000000000000000
6.699047631204340 11.103482950035655 -1.772039750022024 7.000000000000000
5.978399254570944 9.882110995016959 -1.714354486649010 17.000000000000000
5.033739676271940 8.328446184147396 -1.685419521827639 6.000000000000000
3.623859925131134 5.989578109777057 -1.673474449291128 9.000000000000000
10.227180371136264 16.757412336633649 4.560492490005544 6.000000000000000
10.188183462673724 16.709769240728129 3.514808915815681 7.000000000000000
10.122985165532402 16.629651970995042 1.798851751507757 8.000000000000000
10.053275074642503 16.515984403765543 1.226740988677617 9.000000000000000
10.041411468618630 16.501780855320824 0.889586955967828 8.000000000000000
10.025646515645708 16.499510211139167 0.667052481638182 10.000000000000000
10.129545584217286 16.609128091306040 0.611104709116556 8.000000000000000
10.026396362370082 16.482500152370577 0.553968010009651 9.000000000000000
10.089863174119209 16.527694620330585 0.497587680128151 9.000000000000000
10.063009311636407 16.552874354447795 0.442191962451291 9.000000000000000
10.099084732864757 16.553644400334520 0.385107852822953 9.000000000000000
9.993786549499841 16.453069360519315 0.331275693066309 10.000000000000000
10.130950206946562 16.616200824630106 0.272005629540755 8.000000000000000
9.997656223433680 16.441448895166090 0.219295298618841 9.000000000000000
10.068996912674404 16.499268828635259 0.160768063307227 9.000000000000000
10.033232966494026 16.509960476135085 0.105606341965704 9.000000000000000
10.104745398037331 16.567334360799862 0.046940799639813 9.000000000000000
9.982047480757629 16.438971424504359 -0.003661519548721 10.000000000000000
10.116471118184563 16.597825717101799 -0.066576315995216 8.000000000000000
9.982749569826218 16.422334397350710 -0.114312026199837 9.000000000000000
10.076804880577885 16.516565902783825 -0.176310668090883 9.000000000000000
10.019378851993629 16.492502676258404 -0.229561791413751 10.000000000000000
10.088177254373957 16.545625500984904 -0.289616053076556 9.000000000000000
9.965112031119439 16.416551089942239 -0.336515188037930 9.000000000000000
9.943602998995274 16.364323537463328 -0.445128577617866 9.000000000000000
10.109002761622275 16.572476617689368 -0.516281122697842 8.000000000000000
10.023536362524737 16.503961064307902 -0.565678161877981 9.000000000000000
10.119258302600514 16.599993051629454 -0.630741351618160 9.000000000000000
10.016773510216414 16.504131060925282 -0.677022743113182 9.000000000000000
9.990133703615680 16.443428922895386 -0.783829155155992 9.000000000000000
10.102023487725685 16.566135737040085 -0.852910946540692 9.000000000000000
10.022478242929296 16.506968956470992 -0.901151222061988 10.000000000000000
10.125993900267392 16.615607377502350 -0.970244778280773 9.000000000000000
10.006271420051572 16.491990531996180 -1.011103576557127 9.000000000000000
9.970199835433910 16.416210075847758 -1.115107955681291 9.000000000000000
10.085593518888750 16.544667975767354 -1.187807793870016 8.000000000000000
10.019505292535158 16.511694690291144 -1.572303020368565 2.000000000000000
9.770347934813255 15.994787162869869 -1.835101147594310 8.000000000000000
7.678131128542755 12.568944941550107 -1.793322756141559 15.000000000000000
6.740503630667104 11.087148747220070 -1.773809793279330 8.000000000000000
6.021922610325459 9.878193758124773 -1.718553398461723 17.000000000000000
5.069724032155587 8.324401151632017 -1.689318030551299 6.000000000000000
3.647448849242301 5.983707051326249 -1.676150064494871 8.000000000000000
10.390961455044870 16.890964569642826 4.601796601373485 6.000000000000000
10.359000983761813 16.855148339986798 3.547551910973369 6.000000000000000
10.285920221344728 16.763597602694077 1.811727436261826 8.000000000000000
10.222354151875720 16.660550606687778 1.234178509976305 9.000000000000000
10.206195964365310 16.639725168403480 0.893116266922589 8.000000000000000
10.196667047531164 16.647834148479255 0.668290954393954 10.000000000000000
10.301227795388044 16.756928284995460 0.611692873168189 9.000000000000000
10.195351516570103 16.627319961453928 0.553912781314973 8.000000000000000
10.261380999127493 16.675511766567048 0.496896702863862 9.000000000000000
10.225746763683375 16.687470873438734 0.440933655647356 10.000000000000000
10.266346348245673 16.694725366177487 0.383197253277184 10.000000000000000
10.162475260873226 16.598132212069331 0.328731514077640 9.000000000000000
10.302605757750097 16.764001472460805 0.268771237047224 9.000000000000000
10.162153623467031 16.579590668330077 0.215617554789732 9.000000000000000
10.238218602527233 16.643762418221613 0.156325983943687 8.000000000000000
10.193629151978321 16.641255533112727 0.100892606364852 9.000000000000000
10.267719673482134 16.701595487854149 0.041544255843219 9.000000000000000
10.161226600994745 16.600967986227147 -0.010500712102076 9.000000000000000
10.285846807673920 16.742240290079643 -0.073510674159299 9.000000000000000
10.147091416411229 16.560470596415541 -0.121591128577688 8.000000000000000
10.243856437994385 16.657578454070865 -0.184355157016502 8.000000000000000
10.192365817340431 16.644085075563829 -0.238672034261069 9.000000000000000
10.248841934042868 16.676479284804707 -0.298374051452628 9.000000000000000
10.124990199386435 16.548031043405565 -0.345825515831039 9.000000000000000
10.306313054723049 16.779501611304127 -0.417861143437528 9.000000000000000
10.103369400728731 16.495716030854105 -0.455599113994022 9.000000000000000
10.271860571176383 16.706497532939999 -0.527563269055743 8.000000000000000
10.187930228162887 16.641855466186279 -0.577755550593201 9.000000000000000
10.292739956768607 16.750878908697530 -0.644385902941076 8.000000000000000
10.178937940385232 16.638672900944421 -0.690035524592639 9.000000000000000
10.300151573251824 16.774593764917967 -0.760343686142381 9.000000000000000
10.158516713882705 16.588020199781255 -0.798837454181205 9.000000000000000
10.275334296838235 16.716886737318269 -0.869131054897926 9.000000000000000
10.186715995958679 16.644684826758045 -0.916806206668190 10.000000000000000
10.290848908586625 16.752761455054639 -0.986516045795005 9.000000000000000
10.180918514532170 16.646643974510809 -1.029537592933377 9.000000000000000
10.292939132473585 16.768002851227045 -1.102170668991147 9.000000000000000
10.144649933963912 16.570768376436611 -1.134856449167772 9.000000000000000
10.254374027484094 16.688492266255096 -1.207166603145305 7.000000000000000
10.176016386790028 16.632465120678589 -1.254154320273199 2.000000000000000
10.185440100888371 16.652267715671229 -1.595505657934860 2.000000000000000
9.828883499761208 15.967754264459970 -1.836619595849516 9.000000000000000
7.722609467009469 12.545857635051021 -1.794354368727700 15.000000000000000
6.777698733828155 11.064007688325667 -1.774161191249882 8.000000000000000
6.059138429330565 9.864176404217048 -1.720422909528680 18.000000000000000
5.103626452584384 8.316905982316925 -1.692309710730652 6.000000000000000
3.662669559482646 5.965039008858696 -1.673857122960511 9.000000000000000
10.570492516283412 17.046705893994066 4.648827711403074 6.000000000000000
10.533073129230573 17.002865798384953 3.580896150638387 7.000000000000000
10.458454991194394 16.910087628351192 1.825660522991329 9.000000000000000
10.388279540080362 16.797365691084330 1.241301672419178 9.000000000000000
10.367778898812816 16.769942867726989 0.896472954648450 9.000000000000000
10.360290902142808 16.781624013390108 0.669385024318326 10.000000000000000
10.467633632363722 16.893593713887448 0.612204331097103 9.000000000000000
10.354728952365022 16.754245005510079 0.553799746819527 8.000000000000000
10.425464660174082 16.808825429401324 0.496203182171741 9.000000000000000
10.395958605439258 16.831266844652468 0.439616756570861 10.000000000000000
10.438998693710420 16.841591208232856 0.381217913123665 9.000000000000000
10.330156117205679 16.738814531461010 0.326211426285312 9.000000000000000
10.466844215688443 16.897287507489487 0.265722711430788 9.000000000000000
10.332013165472539 16.723523119788766 0.211801341567395 9.000000000000000
10.410710879073616 16.790643315028731 0.151794644253837 8.000000000000000
10.361472318185388 16.781758057952750 0.095908018791629 9.000000000000000
10.442463406026125 16.851797321230173 0.035645561915206 9.000000000000000
10.320295897582572 16.728097898013225 -0.016264948421642 9.000000000000000
10.458488584618536 16.889045000623767 -0.080581095589423 8.000000000000000
10.314652739362931 16.701015543847916 -0.129016825378753 8.000000000000000
10.407722408470953 16.790874710705360 -0.192125016789057 8.000000000000000
10.362253200514591 16.787895842916321 -0.247484895928097 9.000000000000000
10.431949504540913 16.840155206903560 -0.308827932670552 9.000000000000000
10.298706177550137 16.698846313897583 -0.356226866439450 9.000000000000000
10.478960731497448 16.926124163183509 -0.428744418360933 9.000000000000000
10.270580188774808 16.636303219273465 -0.466693127572420 9.000000000000000
10.446478429720525 16.856434781772904 -0.539936012101724 8.000000000000000
10.357670810986587 16.785546139209231 -0.590300889903631 8.000000000000000
10.460976061866603 16.890638692126743 -0.657330201077125 9.000000000000000
10.354946129809623 16.792513986791874 -0.704561868737761 8.000000000000000
10.474758600736727 16.924444236808007 -0.775289975388798 9.000000000000000
10.323755530815102 16.724871187261364 -0.813313275314430 9.000000000000000
10.439120576911915 16.849785609269425 -0.883939214516388 8.000000000000000
10.360555626674916 16.794933712065699 -0.933662965392232 9.000000000000000
10.471728266574651 16.912538532532281 -1.004963786033009 8.000000000000000
10.350375168054871 16.790144670238334 -1.047026837889551 9.000000000000000
10.469457978227567 16.921022297013032 -1.121304545082306 9.000000000000000
10.316032039213649 16.717556291276289 -1.153933205797354 8.000000000000000
10.422138608134876 16.827968469240624 -1.226184796789492 5.000000000000000
10.351726287370397 16.785865633492527 -1.275218971628711 1.000000000000000
10.371582101422788 16.822127045773435 -1.622649612677958 2.000000000000000
9.885216418092497 15.937159309450955 -1.837636399226155 8.000000000000000
7.769148139850739 12.525932595929532 -1.796020443881296 13.000000000000000
6.819058688667288 11.047367751477452 -1.775936242338509 7.000000000000000
6.096326867266944 9.849993261335960 -1.722294334638378 16.000000000000000
5.137534601423088 8.309293841322379 -1.695304186756911 6.000000000000000
3.684110495159269 5.955837395319385 -1.675292894387207 9.000000000000000
10.710431390353929 17.152901107224316 3.614840505607031 7.000000000000000
10.634281991260217 17.058935653882180 1.839846274620697 8.000000000000000
10.566042356426301 16.950075746160316 1.249159275381906 8.000000000000000
10.547614577930958 16.926205837159216 0.900448417237250 9.000000000000000
10.544310576975608 16.944839496567724 0.670755319953064 9.000000000000000
10.650192395606098 17.052886037894872 0.612844010536907 9.000000000000000
10.534487991210231 16.910609267407288 0.553749350716023 8.000000000000000
10.571595203865229 16.980816116936467 0.438254918644145 9.000000000000000
10.608484454200461 16.980694150399373 0.379277912356966 9.000000000000000
10.498938060284061 16.878540473904621 0.323675753097208 9.000000000000000
10.651514678695268 17.059957863116537 0.262206512265517 8.000000000000000
10.498690923992626 16.859736347904303 0.208094229810177 9.000000000000000
10.588661600608301 16.943252261992590 0.147099750458051 8.000000000000000
10.539015196556704 16.934778663505881 0.090565119949955 9.000000000000000
10.611911779225160 16.990861333997600 0.030024588132779 9.000000000000000
10.495402670878875 16.877931912170034 -0.022807823216771 9.000000000000000
10.636578732387779 17.041579715361344 -0.087909009080124 8.000000000000000
10.491916356416944 16.854082720590895 -0.136989021681596 8.000000000000000
10.585570271067596 16.943421569261766 -0.200778339739326 8.000000000000000
10.537558862268156 16.937454227544748 -0.256625613459815 9.000000000000000
10.603400505096960 16.982533661784203 -0.318288176181825 9.000000000000000
10.469299818445769 16.841914618439866 -0.366284757615384 9.000000000000000
10.657052192741634 17.078476026426550 -0.440026582339085 9.000000000000000
10.443186061569826 16.782665246799731 -0.478209173535258 8.000000000000000
10.622261495003823 17.005351347811427 -0.552324361316780 8.000000000000000
10.530678524822317 16.931618954335342 -0.603088315447256 8.000000000000000
10.647510800655489 17.056322033748835 -0.672198853892028 8.000000000000000
10.525715474691289 16.935233065539890 -0.718354074634906 9.000000000000000
10.652678232779195 17.076641225465920 -0.790514206309460 8.000000000000000
10.502942875802503 16.880964632360950 -0.829445686872779 8.000000000000000
10.623306043365076 17.011979400295779 -0.901332026988121 8.000000000000000
10.537704702357622 16.947532185540574 -0.950832327146483 9.000000000000000
10.640956652786183 17.051075878478130 -1.021573608316175 9.000000000000000
10.518810151036515 16.929308445806527 -1.064211333913590 9.000000000000000
10.642874061705530 17.066287618805511 -1.139789697507210 9.000000000000000
10.486411471282146 16.859993544612138 -1.172681839779358 8.000000000000000
10.601729332797380 16.983250801957546 -1.246995850472318 4.000000000000000
10.545739124941871 16.965112013794943 -1.299233729226057 0.000000000000000
10.529131738592643 16.943925323793920 -1.643700489371977 2.000000000000000
7.804923783298661 12.489217641633211 -1.794529506470348 13.000000000000000
6.853976113860218 11.020622388927521 -1.775580866702089 8.000000000000000
6.120650249404017 9.815951279391804 -1.719502340402093 12.000000000000000
5.167179118263017 8.295021555632658 -1.696482627050198 6.000000000000000
3.705528433353586 5.946554350136388 -1.676730064472235 9.000000000000000
10.749126430187811 17.198094230059610 4.695022737214193 6.000000000000000
10.893245877906651 17.308542458781027 3.650000622083970 6.000000000000000
10.819910359108864 17.220179979613903 1.855087183703862 8.000000000000000
10.738500337645771 17.091656486735609 1.256551461871492 9.000000000000000
10.717839303798272 17.064600880221761 0.904012222813904 8.000000000000000
10.714464423780839 17.083409834614024 0.671883394053977 9.000000000000000
10.818824932033632 17.187565271546156 0.613325128345163 9.000000000000000
10.706800904967345 17.052462439555342 0.553648883118779 9.000000000000000
10.603545625416842 16.961399665782494 0.495475252791807 8.000000000000000
10.754885285461189 17.139435789651259 0.436832112530627 9.000000000000000
10.792068151212902 17.138997658654375 0.377160166792938 9.000000000000000
10.679617705848333 17.034112718601342 0.320932530990849 9.000000000000000
10.826616713321012 17.204727483541426 0.258925818424428 8.000000000000000
10.685915277082906 17.025253675635525 0.203811707141207 9.000000000000000
10.713423164632768 17.080027961698370 0.085378103170368 9.000000000000000
10.797616016158042 17.152477868732475 0.023703989175333 9.000000000000000
10.667356714648363 17.020010809898004 -0.029147669729308 9.000000000000000
10.822347146983237 17.203157373809049 -0.095616723182906 8.000000000000000
10.661717135298808 16.992654890847483 -0.144445463747285 8.000000000000000
10.760269387977214 17.088207593931180 -0.209157863949831 8.000000000000000
10.716188877781189 17.089353480146698 -0.265938655277197 9.000000000000000
10.788953647059618 17.144080304461525 -0.328774213816868 8.000000000000000
10.651799035692605 17.000805419480791 -0.377256757789351 9.000000000000000
10.842814145230964 17.239864151083587 -0.451900312136193 9.000000000000000
10.621253491965497 16.934737428458739 -0.490147410030523 9.000000000000000
10.807864702735436 17.166662409244935 -0.565590065304375 8.000000000000000
10.713456051258216 17.090119616488771 -0.616798692346034 9.000000000000000
10.824510995123095 17.204130594393810 -0.685890469526939 8.000000000000000
10.708375200164348 17.093760027847324 -0.733412423537516 9.000000000000000
10.831780896944561 17.227791505279534 -0.805754079583464 9.000000000000000
10.676865926266643 17.025935031084373 -0.844773199849035 9.000000000000000
10.802258724536401 17.163031000985654 -0.917884495180410 9.000000000000000
10.720347006660234 17.105801705982010 -0.968611527483927 9.000000000000000
10.824227756571361 17.208763164498365 -1.040053223732782 9.000000000000000
10.703398499288571 17.090990544615444 -1.083652529226716 8.000000000000000
10.823893363231367 17.220599616700326 -1.159287349639776 9.000000000000000
10.668676267024111 17.018202659346883 -1.193164462787947 8.000000000000000
10.782523078008374 17.137475509216380 -1.267822786586713 2.000000000000000
10.732516623092582 17.129792587411188 -1.321798428954327 1.000000000000000
10.706973392773069 17.094942263524935 -1.668693936738263 2.000000000000000
9.945735670815544 15.913038708881473 -1.839667691338167 9.000000000000000
7.851307245224537 12.468976932215938 -1.796200984053828 15.000000000000000
6.890933893135474 10.997089756555603 -1.775939141548766 8.000000000000000
6.159862468985869 9.804826320781508 -1.722156183603166 8.000000000000000
5.198928860984926 8.283890191413683 -1.698572199011936 6.000000000000000
3.724798181928153 5.934022022534151 -1.676925490015640 9.000000000000000
10.928946799983578 17.348439172203811 4.741201957998673 5.000000000000000
11.088040269043557 17.479663920857007 3.688223879934971 6.000000000000000
11.000276689509029 17.370259522452173 1.869509528952351 8.000000000000000
10.918599722137845 17.242297130688762 1.264377566362035 8.000000000000000
10.895682399055083 17.212067032460986 0.907798231465946 8.000000000000000
10.885708311248610 17.220990786814291 0.672996478770460 9.000000000000000
11.012475478911103 17.358176255725439 0.614013360569821 9.000000000000000
10.893285864474702 17.213446639165817 0.553583282950581 8.000000000000000
10.776304652113467 17.102845179084085 0.494741873949265 9.000000000000000
10.937232200133060 17.293594157882737 0.435408898217579 8.000000000000000
10.859333051254769 17.185262665126274 0.318211904945724 9.000000000000000
11.009384165834362 17.358538451685661 0.255478133996814 9.000000000000000
10.852661053716989 17.156103948330781 0.200136306896574 8.000000000000000
10.759124260791971 17.081376901589685 0.142686038651453 8.000000000000000
10.904182041363907 17.247732753104216 0.079574732572222 9.000000000000000
10.855621925719621 17.184591730088648 -0.036268889782148 8.000000000000000
10.998488452270092 17.346868488049623 -0.102734095706038 9.000000000000000
10.850002117957057 17.157083148165889 -0.152981163267389 8.000000000000000
10.904689742379354 17.253605467907093 -0.275893247659581 9.000000000000000
10.967052409049373 17.291128147884251 -0.338603232371763 9.000000000000000
10.829020387268198 17.148553206071448 -0.387705462055179 9.000000000000000
11.018957344596416 17.383393735632517 -0.462830745376642 9.000000000000000
10.802675055830669 17.089116919760833 -0.502305260887732 8.000000000000000
10.899631661348714 17.250877223850232 -0.630751711596665 9.000000000000000
11.011361661580601 17.364298249387417 -0.700553674226624 9.000000000000000
10.887929658817928 17.244503921059540 -0.747986574624403 9.000000000000000
11.018574466518579 17.387943701087075 -0.821797042994177 9.000000000000000
10.864937705009407 17.189984580158033 -0.861759111103925 9.000000000000000
10.991082271759414 17.326412118242928 -0.935596027935347 9.000000000000000
10.897717417841754 17.252928848658591 -0.985514901012376 9.000000000000000
11.004379754960553 17.358677846494736 -1.057930962905181 10.000000000000000
10.882745566889191 17.241535703785026 -1.102149069588329 9.000000000000000
11.001775267647123 17.367155272287242 -1.178136094782207 9.000000000000000
10.843500953475559 17.161956285837370 -1.212287950064752 8.000000000000000
10.968855685783595 17.297320940599647 -1.289377690600671 1.000000000000000
10.907588430746202 17.273282207324648 -1.342176906569925 1.000000000000000
10.898941906519148 17.264931877980722 -1.696322272386254 2.000000000000000
10.010511264846887 15.895327221689016 -1.842713479021779 9.000000000000000
7.897641014769964 12.448558483274610 -1.797875341008945 16.000000000000000
6.932123157106791 10.980008985178429 -1.777721535167483 8.000000000000000
6.207716632989967 9.806640121500287 -1.727924458600537 7.000000000000000
5.224189253213540 8.262899567136394 -1.697935727273912 6.000000000000000
3.746157414208501 5.924578146807683 -1.678365128062939 9.000000000000000
11.124883757535496 17.520690617774427 4.793104653678379 5.000000000000000
11.184002107702355 17.522651570571988 1.884182386791312 8.000000000000000
11.104251652235135 17.398570944015773 1.272486933217084 8.000000000000000
11.081246001966850 17.368537749519589 0.911804800224482 9.000000000000000
11.073329973227757 17.381034488989705 0.674318347988591 10.000000000000000
11.076642629640496 17.366632069393198 0.553484527452775 9.000000000000000
10.963262401306668 17.263403209667885 0.493971843722282 9.000000000000000
11.112036066882883 17.433302877902562 0.434029699213333 10.000000000000000
10.974701365184043 17.292864633706500 0.375053166625290 9.000000000000000
11.042412819420452 17.338712845480998 0.315436283026019 10.000000000000000
11.048880422125382 17.329517780930495 0.195633763128860 9.000000000000000
10.954659331922169 17.255393468349098 0.137438920111546 8.000000000000000
11.078754899075509 17.387534971590831 0.074442094947422 9.000000000000000
10.978038020303277 17.302938998588715 0.017660123510476 9.000000000000000
11.038611703178404 17.338009734298254 -0.043078607263408 9.000000000000000
11.186696538077825 17.506275278395371 -0.110474210064824 9.000000000000000
11.033000372911090 17.310352943006635 -0.161134267056097 8.000000000000000
10.949175441724602 17.252080803739837 -0.218423345314475 8.000000000000000
11.081359588949798 17.396677822772851 -0.284925335925013 9.000000000000000
11.018301480660810 17.312006153932032 -0.399070015456075 9.000000000000000
11.213711767082653 17.552644911805338 -0.475313135387187 9.000000000000000
10.987480926416545 17.245771859321927 -0.514682960142656 9.000000000000000
10.992540165649039 17.323532616982732 -0.578657168061404 8.000000000000000
11.082690584418579 17.403867261592389 -0.644268048139328 9.000000000000000
11.192898943192262 17.513342890491906 -0.714516423338472 9.000000000000000
11.073016771301390 17.400889014602775 -0.763077585821727 10.000000000000000
11.195698002898194 17.530274158110757 -0.836543973284755 9.000000000000000
11.043373432281921 17.336216837666093 -0.877392339180113 9.000000000000000
11.078415320487238 17.402379478149435 -1.002731987701675 9.000000000000000
11.200980321085954 17.530900557183919 -1.077989638801555 9.000000000000000
11.063266816460690 17.391031672110635 -1.120661881526951 9.000000000000000
11.200421219646035 17.542703943381191 -1.199993658520138 8.000000000000000
11.023807337676626 17.311367691416926 -1.232115015460458 8.000000000000000
11.147700921937329 17.442724063025928 -1.309525276054188 0.000000000000000
11.077260525025512 17.405758089874396 -1.361470221054452 1.000000000000000
11.074856823669645 17.407153000653821 -1.720474911444480 2.000000000000000
10.075280053576964 15.877373117725931 -1.845764338224216 8.000000000000000
7.939569396318171 12.421373455650524 -1.798288337870455 16.000000000000000
6.973273504655033 10.962768098479366 -1.779506515018294 8.000000000000000
6.255653949897397 9.808231854604465 -1.733696168406385 7.000000000000000
5.255868160552981 8.251539675387349 -1.700029131936791 7.000000000000000
3.765346883794451 5.911919331202874 -1.678563243496111 9.000000000000000
11.307140280127278 17.668872954535509 4.839250752662272 6.000000000000000
11.266845809028670 17.623190428687707 3.721504246864586 6.000000000000000
11.373310599030287 17.680626607338503 1.899373446377436 8.000000000000000
11.286724139053725 17.547074490094964 1.280280574914384 8.000000000000000
11.270229610014269 17.527257857810071 0.915873376991869 8.000000000000000
11.253412013376845 17.526601622633009 0.675495697172339 9.000000000000000
11.181172355102614 17.487455251322963 0.614443809482716 9.000000000000000
11.261196812620746 17.518741407791829 0.553369064844697 8.000000000000000
11.140503449232799 17.406121706575817 0.493203326113506 9.000000000000000
11.303327440058556 17.595394245830256 0.432527335285674 8.000000000000000
11.162916554587561 17.452354581417467 0.372875091723745 10.000000000000000
11.220104398862411 17.481060379816419 0.312760872094060 9.000000000000000
11.193352682115716 17.511268905102668 0.252014326880338 8.000000000000000
11.226644965546296 17.471697573027051 0.191676825646527 9.000000000000000
11.127421419023168 17.391435283878479 0.132993963577449 9.000000000000000
11.274201629985502 17.556399514881349 0.068517742833152 9.000000000000000
11.159635705775841 17.452339113997432 0.011600263913457 9.000000000000000
11.231576408319533 17.503724527824438 -0.050343194815500 8.000000000000000
11.214996367888943 17.459206125741211 -0.169170702776270 8.000000000000000
11.130587940792680 17.401450239779820 -0.227124635034604 8.000000000000000
11.274520913285325 17.562102885767985 -0.295071158404575 9.000000000000000
11.152866386812725 17.447165248569483 -0.348953685651265 8.000000000000000
11.193500703146508 17.450954109557088 -0.409190771344702 8.000000000000000
11.414169418872511 17.727429416898964 -0.488198009187012 9.000000000000000
11.169114397992313 17.394666372502762 -0.526669769980816 9.000000000000000
11.176247140077336 17.475960761129066 -0.591524485816985 8.000000000000000
11.271329176898163 17.562457959998362 -0.658255231113755 8.000000000000000
11.254940954141478 17.549507946089413 -0.777684105372841 9.000000000000000
11.400274797444791 17.711594565028186 -0.854458256313660 8.000000000000000
11.236110746943790 17.501407253737497 -0.894685678548348 9.000000000000000
11.163687886627770 17.461967151796152 -0.951036979657245 8.000000000000000
11.279990055293784 17.580782213620289 -1.022642186525990 8.000000000000000
11.381356890576630 17.675316724154847 -1.095591050068006 8.000000000000000
11.258077314160616 17.559473453020786 -1.141114068236837 8.000000000000000
11.391653658518187 17.703760228088207 -1.220538858380488 9.000000000000000
11.209660260808178 17.466380162291173 -1.252646315018513 7.000000000000000
11.272030714906123 17.573881531722130 -1.384818613386539 1.000000000000000
11.275888435399306 17.584908920770175 -1.749448466085054 2.000000000000000
10.131334694630532 15.845886459277267 -1.846795928608530 9.000000000000000
8.827203775712320 13.761162732722653 -1.819204219604667 11.000000000000000
7.010022734818951 10.938816126321719 -1.779871698444838 7.000000000000000
6.290564880916438 9.790048447419821 -1.734802405970288 7.000000000000000
5.287528485176800 8.240043518627687 -1.702124431440662 6.000000000000000
3.784489837189551 5.899190566634189 -1.678762385900231 10.000000000000000
11.518602471655889 17.858466791804332 4.896036085057383 5.000000000000000
11.464194128956215 17.792076363987171 3.759692040046092 6.000000000000000
11.579299204640687 17.860772497696622 1.916418404837307 8.000000000000000
11.476997901202616 17.704500359310245 1.288506077819449 8.000000000000000
11.456028426815806 17.678194515303311 0.919767770590343 8.000000000000000
11.450094439786181 17.694437595861942 0.676880444816735 9.000000000000000
11.379513249261674 17.659190944876578 0.615118195814308 8.000000000000000
11.453577729657631 17.679768623678882 0.553261308885576 8.000000000000000
11.334300208081284 17.571180251708334 0.492392638415073 8.000000000000000
11.502507946432107 17.766356113975611 0.430961222557722 9.000000000000000
11.418783792602508 17.652367554580721 0.309719577386528 9.000000000000000
11.382915934436944 17.669610788101224 0.248431725338105 8.000000000000000
11.425427939014146 17.642839578999642 0.187139490869057 9.000000000000000
11.329909042355553 17.569874861364610 0.127563295923742 8.000000000000000
11.462122363484823 17.710768192861892 0.062921057746140 8.000000000000000
11.355613084065034 17.620708965269486 0.004935428013244 9.000000000000000
11.414796822555751 17.651600826003644 -0.057075556254288 10.000000000000000
11.378343134342604 17.667921002496207 -0.118353324734791 9.000000000000000
11.415834511229725 17.633649645922077 -0.178289920536225 8.000000000000000
11.321979705808310 17.563114288769029 -0.236423928914430 8.000000000000000
11.473378710161040 17.733045694643316 -0.305548083421732 8.000000000000000
11.344296736513215 17.608782208050798 -0.359658430666746 8.000000000000000
11.394044800046771 17.625525500181354 -0.421308785279793 8.000000000000000
11.362950650286578 17.559142199870671 -0.539692249691582 8.000000000000000
11.376545280128873 17.650660041467567 -0.605919494708200 7.000000000000000
11.467815277966146 17.729925208567792 -0.672941537799412 8.000000000000000
11.390984367380110 17.684663271558762 -0.730170002978953 8.000000000000000
11.457846789407018 17.727016250435661 -0.794561937142098 8.000000000000000
11.425719696543975 17.658800693335728 -0.911448092664573 8.000000000000000
11.363731317693407 17.636492500719577 -0.969925919194581 8.000000000000000
11.469729599733736 17.738025953001653 -1.040785593548281 9.000000000000000
11.456389967522355 17.730063188505454 -1.161903788640322 8.000000000000000
11.407725539393478 17.636907529600450 -1.274915143535090 5.000000000000000
11.373750809079485 17.656940797484893 -1.337166109769878 0.000000000000000
11.465903557859196 17.737526293141975 -1.407817106653966 1.000000000000000
11.469514640487954 17.748206089188670 -1.776692527542761 2.000000000000000
10.193853759063646 15.824126398113577 -1.849349004549204 9.000000000000000
7.983589732383991 12.397330197367495 -1.799336093543455 15.000000000000000
7.048879253191377 10.918008266341012 -1.780950543051240 7.000000000000000
6.329814853712071 9.778229068621016 -1.737467216974649 7.000000000000000
5.310405846834873 8.215546179134606 -1.700583193168868 6.000000000000000
3.803586637376173 5.886395655429318 -1.678962694223479 10.000000000000000
11.727190822798480 18.040276602360784 4.951162658956329 5.000000000000000
11.671605563362416 17.972959205695119 3.800323661988100 6.000000000000000
11.777808279839530 18.026416323184492 1.932375561887310 7.000000000000000
11.684059932903761 17.884064473144861 1.297759669095206 8.000000000000000
11.658575042978505 17.851315312449628 0.924195059035806 9.000000000000000
11.553972155057320 17.779067016130433 0.738586866060837 9.000000000000000
11.648080549194422 17.861134126947540 0.678246435984446 9.000000000000000
11.568120918389511 17.813089168163877 0.615675664592882 9.000000000000000
11.649436764146678 17.842983068921413 0.553143968431310 8.000000000000000
11.524946904041602 17.728428915720166 0.491572145453833 9.000000000000000
11.694129856159915 17.922828295031771 0.429439313498847 9.000000000000000
11.543065585707485 17.767993332270969 0.368468487049839 9.000000000000000
11.616570511758045 17.819186849940806 0.306698655323908 8.000000000000000
11.584774201128557 17.843493792969241 0.244577836107769 8.000000000000000
11.625535792114121 17.812796297106352 0.182584494519723 8.000000000000000
11.518264075808595 17.723793746234321 0.122637557215811 8.000000000000000
11.664572126099934 17.883988835365329 0.056788835401630 8.000000000000000
11.552895266874820 17.787916043937024 -0.001747117975507 9.000000000000000
11.616920913449743 17.825041470165289 -0.064704029677661 8.000000000000000
11.575670108691092 17.835101261878137 -0.126493058251045 9.000000000000000
11.609137260574329 17.793601939811666 -0.186893979030050 8.000000000000000
11.523483721733903 17.736959015025910 -0.246322088092590 7.000000000000000
11.662468819434086 17.886185706115405 -0.315257764912251 8.000000000000000
11.541407144920520 17.775930225532868 -0.370718148508752 8.000000000000000
11.593721392385628 17.795602544050197 -0.433265648676411 8.000000000000000
11.560282904781449 17.725794479194690 -0.552936516279552 9.000000000000000
11.564922488937736 17.804207255180536 -0.619036989279674 8.000000000000000
11.667817399316263 17.899553250047589 -0.687873205512802 8.000000000000000
11.590394929459396 17.854806052802736 -0.745841280188449 9.000000000000000
11.662120340978767 17.903332405439819 -0.811458834756239 8.000000000000000
11.623205519896871 17.825037558408823 -0.929050456849941 8.000000000000000
11.567329834908932 17.813150902540372 -0.989119172094270 8.000000000000000
11.667334936252193 17.904104538432790 -1.059838764130161 8.000000000000000
11.587133399437842 17.855228639012331 -1.116613186259041 8.000000000000000
11.658231769750515 17.902815840677071 -1.183033004875647 8.000000000000000
11.609323253473335 17.809577112000554 -1.297546282663266 4.000000000000000
11.572755705661212 17.826640936215625 -1.360197613005903 1.000000000000000
11.674303930360573 17.919913790663053 -1.433038258053022 1.000000000000000
11.675433483566955 17.926899093048966 -1.806139459918827 2.000000000000000
10.256340448134765 15.802116226087570 -1.851906158208278 8.000000000000000
8.031936046714161 12.379683254086011 -1.801651339951239 16.000000000000000
7.085468695921628 10.893780049732584 -1.781319893335335 8.000000000000000
6.366847597524390 9.763018664192423 -1.739356549924314 7.000000000000000
5.337577548804722 8.197414031630657 -1.700862806438216 6.000000000000000
3.822636990247011 5.873534644979244 -1.679164151294021 10.000000000000000
11.873822591999829 18.142751102438758 3.839091059253447 6.000000000000000
11.816290339591543 18.073125421229776 2.691119481152068 7.000000000000000
11.885808945537473 18.052446418065976 1.306546715657963 8.000000000000000
11.851290806344625 18.006645706371245 0.928212088868737 9.000000000000000
11.750431212150254 17.941787370386322 0.740624314045455 8.000000000000000
11.840670956469086 18.016694204695781 0.679500155925835 9.000000000000000
11.775730483088104 17.992478260621169 0.616373772057904 8.000000000000000
11.844334227136951 18.001718877588310 0.553001309531260 8.000000000000000
11.725734984361388 17.897843860987059 0.490718597813998 8.000000000000000
11.891443834046740 18.084810162549310 0.427868894713163 9.000000000000000
11.743891966357761 17.937423946582058 0.366129379769162 8.000000000000000
11.811194788692340 17.978196985822429 0.303737974335542 9.000000000000000
11.776862053349266 17.999558453470549 0.240960439479206 8.000000000000000
11.818028411887212 17.968298721787733 0.178262649634703 8.000000000000000
11.710053231138346 17.879930822448365 0.117619655880029 8.000000000000000
11.870596887078481 18.059327489737306 0.050551546436419 8.000000000000000
11.758151524127328 17.963920568947991 -0.008742250719648 8.000000000000000
11.818159178405082 17.993961013632465 -0.072241144084472 9.000000000000000
11.778740884856539 18.007759555099341 -0.134894413080769 8.000000000000000
11.812618557978020 17.965675900446371 -0.196049421830249 8.000000000000000
11.712980251650251 17.889680560200915 -0.255365134153006 7.000000000000000
11.866140926684707 18.058118598287479 -0.325927607037107 8.000000000000000
11.746484556932362 17.951868890383089 -0.382302342912646 8.000000000000000
11.792488878216631 17.961172574188652 -0.445060120117924 8.000000000000000
11.810246455476086 18.060122435241794 -0.513252566970374 9.000000000000000
11.761139792927938 17.894587730025194 -0.566402774831868 7.000000000000000
11.770065316578027 17.979877991567264 -0.633683834260012 7.000000000000000
11.869136259666480 18.067993417586180 -0.702822931247557 8.000000000000000
11.788904238199020 18.020442779305952 -0.761291134393392 8.000000000000000
11.858857712325282 18.065175019860483 -0.827370929195706 9.000000000000000
11.804735089629865 18.057288841662363 -0.889291457259612 9.000000000000000
11.828664771642352 18.000032888642636 -0.947493809256894 8.000000000000000
11.765631554098071 17.978650228702719 -1.007472180369630 8.000000000000000
11.881803960816498 18.092192328759417 -1.080994277462977 8.000000000000000
11.789862135735163 18.027279258907186 -1.137034731408582 8.000000000000000
11.863633322542732 18.077684030497146 -1.204501648035124 8.000000000000000
11.816704484088515 17.987659237374892 -1.320884616987643 3.000000000000000
11.775293087150402 17.998475096391118 -1.383603604777506 1.000000000000000
11.877445694587355 18.091133658412410 -1.457175476972642 1.000000000000000
11.882730657020399 18.104363487242999 -1.835605089591564 2.000000000000000
10.321005737904962 15.783153665615345 -1.854973721329789 8.000000000000000
8.075829925019086 12.355288836814132 -1.802704406242278 16.000000000000000
7.126401087892267 10.875943403264294 -1.783114858480599 7.000000000000000
6.399409549227188 9.741186736486625 -1.739691080779746 7.000000000000000
5.369109766536151 8.185597884030443 -1.702963837600738 7.000000000000000
3.846020443470024 5.866810594023910 -1.681853596442440 10.000000000000000
12.083996679597448 18.321171905983249 3.879685257150453 6.000000000000000
11.979840919273979 18.194195721387217 1.948582023842694 8.000000000000000
11.945999429144187 18.082048854059998 1.246479554236245 7.000000000000000
12.056459936126863 18.177388623673039 0.932603005846673 9.000000000000000
11.950398903750855 18.106660496333205 0.742687341502809 8.000000000000000
12.047939592781198 18.190992993811150 0.680924888914560 8.000000000000000
11.975783751788164 18.157356549085364 0.616974598665820 8.000000000000000
12.047215827513423 18.169239218936966 0.552863706940519 8.000000000000000
11.925601963069273 18.062754816553067 0.489850582757121 8.000000000000000
12.107979908986923 18.272105835882371 0.426154439767684 9.000000000000000
11.948272941944751 18.108978022469330 0.363744217669129 9.000000000000000
12.016032223584169 18.149306446261853 0.300602487751447 9.000000000000000
11.979114836761418 18.167755410716474 0.237121433001254 8.000000000000000
12.025214554741819 18.142523982724931 0.173545526517793 8.000000000000000
11.916497714338984 18.054821191990982 0.112135052091478 7.000000000000000
12.064522239302740 18.213555977557220 0.044816552819644 9.000000000000000
11.949116527047352 18.115497648199117 -0.015067087646156 9.000000000000000
12.013990202944228 18.151754079682732 -0.079466040508090 9.000000000000000
11.976449796700606 18.169262285138934 -0.142948296857941 9.000000000000000
12.012948104425458 18.129922858969159 -0.204956129803880 8.000000000000000
11.917098357170275 18.061164224225337 -0.265299190944263 8.000000000000000
12.068907423501734 18.225516003702424 -0.336458077888680 8.000000000000000
11.939516720471680 18.106707228922851 -0.392890839168638 9.000000000000000
11.999263777275502 18.135494594891476 -0.457414152491032 8.000000000000000
12.014689171731156 18.231337773797854 -0.526191765811042 9.000000000000000
11.963309049748602 18.062189929358752 -0.579887278806002 7.000000000000000
11.978802296252773 18.157635655518199 -0.648565413331116 7.000000000000000
12.080722708837556 18.248453551032568 -0.718701357791899 8.000000000000000
11.997631661526810 18.198151938745788 -0.777717283801962 8.000000000000000
12.072514049523942 18.249003248400790 -0.845057691884709 8.000000000000000
12.011201981857344 18.231641332404109 -0.906998391658580 8.000000000000000
12.042197345095190 18.183716641494712 -0.966779520181478 8.000000000000000
11.971917263888724 18.152897263587761 -1.026702204097919 8.000000000000000
12.082067981425340 18.255856366734434 -1.100083725626023 8.000000000000000
11.998382847977624 18.204743662878158 -1.158094318764214 8.000000000000000
12.070389061977270 18.251323592982338 -1.225988724779471 9.000000000000000
12.004007360669597 18.226432411894237 -1.286940603222731 9.000000000000000
12.023226862394008 18.161205408469407 -1.343897314460476 1.000000000000000
11.970250708693296 18.155893224478568 -1.405602387240692 1.000000000000000
12.086381910969827 18.267727822493782 -1.482065928870508 1.000000000000000
12.084716759239651 18.270699621518098 -1.863777128727459 3.000000000000000
10.396774089731615 15.780347229157904 -1.860576981944946 8.000000000000000
8.119648052408053 12.330747870576545 -1.803760566742930 16.000000000000000
7.165065983996664 10.854705772188225 -1.784200887582275 8.000000000000000
6.434123998024067 9.722473766054243 -1.740806346399287 7.000000000000000
5.400620531611970 8.173653654261294 -1.705066864706449 7.000000000000000
3.860596899225661 5.847599109418148 -1.679570171797590 9.000000000000000
12.302225804612242 18.508136460466510 3.922106040448794 6.000000000000000
12.194389978994209 18.377273749605607 1.966105822392477 7.000000000000000
12.084380507088127 18.213019097017657 1.315017238501828 9.000000000000000
12.129901718511960 18.225592020433247 0.870916565851018 8.000000000000000
12.156153493588590 18.276963019858357 0.744818422607498 8.000000000000000
12.258818224572465 18.367366108176995 0.682362059142026 9.000000000000000
12.179373884471680 18.324362895611124 0.617576924394381 10.000000000000000
