# This PCD file was generated using the MATLAB® pcwrite function
# from Computer Vision Toolbox®.
# .PCD v.7 - Point Cloud Data file format
VERSION .7
FIELDS x y z intensity
SIZE 8 8 8 8
TYPE F F F F
COUNT 1 1 1 1
WIDTH 648
HEIGHT 1
VIEWPOINT 0 0 0 1 0 0 0
POINTS 648
DATA ascii
8.786569690887951 4.117094633675478 -1.619781112396966 9.000000000000000
8.195087587750098 3.843526566242545 -1.629989748141485 7.000000000000000
4.486595579470741 2.095651575436065 -1.091375156321743 4.000000000000000
4.720742086995105 2.206070144399220 -1.786303440438298 13.000000000000000
6.322679775959147 2.938576749774441 1.505948011663049 22.000000000000000
6.605623594937065 3.066010904936419 0.715337177797563 255.000000000000000
6.596170931922164 3.064321352561095 0.589938628850454 255.000000000000000
9.826468430449980 4.550752549914819 0.447310066362000 62.000000000000000
9.814364136569019 4.562802421080590 0.353171671754618 47.000000000000000
9.801086055438509 4.536546366296164 0.322279436204176 29.000000000000000
9.795745969455458 4.553007796522721 0.290809984185030 53.000000000000000
9.819218775732674 4.550926347893792 0.259684687200609 72.000000000000000
9.791546016443696 4.558386968809529 0.228596149739146 70.000000000000000
9.788993426553610 4.536427013328208 0.197480743337587 60.000000000000000
9.816651231544766 4.566551732017587 0.165036559756453 41.000000000000000
9.747452230861114 4.517357888507320 0.136595815737324 36.000000000000000
9.782250560979683 4.550359669508452 0.103550856366466 55.000000000000000
9.797823799240197 4.545089723875634 0.072951243619981 75.000000000000000
9.869347881756900 4.593556409609178 0.037353197058945 67.000000000000000
9.788762551804945 4.539278961337416 0.010250299890486 47.000000000000000
9.852777765333984 4.584489729114736 -0.024893377141084 48.000000000000000
9.827474926743157 4.553396122363253 -0.054199303209646 62.000000000000000
9.802603508295491 4.561626048382536 -0.085159474317548 62.000000000000000
9.932167433666336 4.603362288197729 -0.123157630493034 60.000000000000000
9.844347662332321 4.585853171743793 -0.149974722820892 67.000000000000000
9.815008075341664 4.553050323332840 -0.178800685940245 54.000000000000000
9.800977419018061 4.565790784755748 -0.209964686139547 53.000000000000000
9.801011024835761 4.545189161264830 -0.240331314133958 67.000000000000000
9.794080230476672 4.561047781732455 -0.272389003361252 56.000000000000000
9.845575176804253 4.570410074387965 -0.305848387270237 65.000000000000000
9.871617774556098 4.600125348308765 -0.340719289111154 62.000000000000000
9.801310294141834 4.550282740961123 -0.365210245664849 54.000000000000000
9.827254352941534 4.579664123119983 -0.400184636082093 49.000000000000000
9.782653288570947 4.540524474944164 -0.425980839172531 67.000000000000000
9.797263949164948 4.565327540154186 -0.460414901454545 60.000000000000000
9.866635221209973 4.582053896859605 -0.496343792692729 69.000000000000000
9.866327052572316 4.600901961879813 -0.529280224990646 54.000000000000000
9.806711743092995 4.555464698068420 -0.553181651505388 54.000000000000000
9.776023375133484 4.545671133744605 -0.737089678700593 77.000000000000000
9.544754539808483 4.452956136644701 -0.890137362141585 18.000000000000000
9.558943583893585 4.423182722094765 -1.075055726890454 5.000000000000000
9.808315800969574 4.564971491283529 -1.118125744503801 46.000000000000000
9.835831209676950 4.578926102103580 -1.280012398722203 64.000000000000000
9.635440830381313 4.460422176778707 -1.456890215255084 16.000000000000000
9.446343871004483 4.385582045389825 -1.598841211907559 8.000000000000000
4.409681086786326 2.051704913053257 -1.062297860300930 2.000000000000000
4.729928549300508 2.191283723148985 -1.788222348467940 13.000000000000000
6.636901823898453 3.051981841206299 0.715684031667402 244.000000000000000
6.616234635509638 3.046050638403727 0.589721232749858 255.000000000000000
9.813379017251529 4.524804862318362 0.415685132458248 59.000000000000000
9.809976654946450 4.521407075912421 0.352926774250883 28.000000000000000
9.822123436760851 4.512578941429751 0.259429942970226 49.000000000000000
9.794504056528877 4.520116947401092 0.228378329839975 74.000000000000000
9.790084894317300 4.516042861225685 0.165918398591216 28.000000000000000
9.789601147287891 4.502289722549349 0.073401525123127 62.000000000000000
9.791077308880743 4.521667515834693 0.041213416909443 69.000000000000000
9.785647176200266 4.517169501388324 -0.021043838101133 45.000000000000000
9.786095225350238 4.496865973716609 -0.051570566823499 34.000000000000000
9.831719616959152 4.522415462047960 -0.116428692002047 72.000000000000000
9.773524404643938 4.517092138862779 -0.144843912974999 65.000000000000000
9.799481077904936 4.507165533846731 -0.177271335647324 17.000000000000000
9.785542335088635 4.519893553387249 -0.208340223177335 26.000000000000000
9.811622552713711 4.516911440924190 -0.302423156897912 57.000000000000000
9.804637978501704 4.532811705152028 -0.334292291064121 61.000000000000000
9.785805397756494 4.504456694296479 -0.363119205927894 17.000000000000000
9.800842940043747 4.529142128277698 -0.396980410401674 33.000000000000000
9.792233638683882 4.511941332489641 -0.487888505738564 71.000000000000000
9.803157197860129 4.535154420739900 -0.521700645064172 59.000000000000000
9.813367403075329 4.518675406915577 -0.552920277733693 22.000000000000000
9.801031641778986 4.516517774353531 -0.739024925563698 29.000000000000000
9.771141974203998 4.507261294202948 -0.921772098363928 58.000000000000000
9.740410444362210 4.500128636092768 -1.260674130127383 41.000000000000000
4.397021550739510 2.030585680169793 -1.056160853096688 2.000000000000000
4.735634030853227 2.175246226249243 -1.788477443464023 14.000000000000000
6.132890636134730 2.793511275593147 1.471085701229844 32.000000000000000
6.626035466875653 3.032637655977325 0.694351347225146 8.000000000000000
4.423733382814199 2.023065569779305 -1.064048386896979 3.000000000000000
4.744718061780664 2.160374865826910 -1.790397718205463 13.000000000000000
6.148308195624346 2.775313075064005 1.471919639634340 27.000000000000000
7.035465093139241 3.191402527966090 1.216936743336554 0.000000000000000
8.215081096002606 3.720789827590536 -1.625196343422658 9.000000000000000
4.358469489899305 1.967908380064387 -1.037739126876658 4.000000000000000
4.252451147952278 1.925213787367554 -1.543268105288715 2.000000000000000
6.111621347727977 2.738042567192693 1.464591589213357 23.000000000000000
9.811162925777284 4.387176986872007 0.445606792232588 51.000000000000000
9.793315989874829 4.376178373644436 0.321333410217149 38.000000000000000
9.803189440267188 4.398500740090725 0.289736532772389 53.000000000000000
9.792218552805863 4.380671540159724 0.196989607782337 51.000000000000000
9.735697904546971 4.356257514068190 0.137005831920114 41.000000000000000
9.782222504736895 4.393080560126791 0.103705883463621 60.000000000000000
9.769737425868755 4.374697232613173 0.011877199744293 57.000000000000000
9.773070752382122 4.392214990017550 -0.082162081048012 73.000000000000000
9.774864455215814 4.377460581687927 -0.236270720796652 61.000000000000000
9.775718063085716 4.396211532721907 -0.268653097047351 61.000000000000000
9.778061558518226 4.365259184650981 -0.329451056211357 73.000000000000000
9.778742855670130 4.381916542981557 -0.422488243592108 64.000000000000000
9.776707374304475 4.367651246484570 -0.515320129563386 71.000000000000000
8.829512500581435 3.958495256963815 -1.617804282904784 11.000000000000000
8.218880019182716 3.689770288154378 -1.623762788868791 9.000000000000000
4.334628681478758 1.943670328211724 -1.027768037968848 3.000000000000000
4.250323394698243 1.908580056667461 -1.540165562254687 2.000000000000000
6.100802948497765 2.710447720791933 1.461346590528113 19.000000000000000
7.098873992568643 3.159911386943307 1.220675878259996 3.000000000000000
9.878613076423054 4.393967403374560 1.509728154807173 49.000000000000000
9.800581667354258 4.339249832836060 0.569084734054184 50.000000000000000
9.813434106473563 4.349014319670175 0.445142899714681 62.000000000000000
9.801872634186138 4.361040118007651 0.351783287334861 54.000000000000000
9.799342046551397 4.339528276634084 0.320940307172857 39.000000000000000
9.816756796567208 4.364735813153317 0.289201509567639 40.000000000000000
9.817336639745818 4.353673074850846 0.258792379374263 54.000000000000000
9.801106138689978 4.365848775893340 0.227617955195009 60.000000000000000
9.809389200085862 4.348408401096137 0.196337914830892 56.000000000000000
9.785621103935318 4.357413021245065 0.165852585106472 35.000000000000000
9.756534148931573 4.325655897639507 0.136191893117168 45.000000000000000
9.780890258035287 4.353514825975680 0.103784973538112 63.000000000000000
9.795837934326126 4.348203124763756 0.073406398404419 64.000000000000000
9.771667647766387 4.357209679286598 0.042609658443688 65.000000000000000
9.790593782233513 4.343967773222403 0.010967683178750 52.000000000000000
9.762625700830366 4.351273087441413 -0.018978452925309 67.000000000000000
9.785122984066373 4.339849353034126 -0.050532985702908 68.000000000000000
9.782882442581041 4.357088458458023 -0.082471591946141 65.000000000000000
9.801056665154640 4.353185730448402 -0.113162320072390 70.000000000000000
9.776380171262685 4.361665101909139 -0.143517575198872 73.000000000000000
9.794801787217493 4.348543680776231 -0.175270329122245 54.000000000000000
9.770034943577039 4.356948175111100 -0.205336697506288 59.000000000000000
9.788311996461539 4.343798548688554 -0.236804033840861 67.000000000000000
9.785537848277839 4.361077076529497 -0.268892364467759 59.000000000000000
9.799524094878207 4.355249171482924 -0.299065564826182 66.000000000000000
9.802551617176620 4.335927772111376 -0.330936537539826 60.000000000000000
9.788553585961800 4.348954156146547 -0.360651579093737 62.000000000000000
9.774402114408410 4.361599767162772 -0.391624486843142 59.000000000000000
9.788487351977528 4.346778796993490 -0.422669380366623 65.000000000000000
9.781458088035571 4.362397692623460 -0.454719760194031 65.000000000000000
9.780135477309887 4.350582615268991 -0.483267342748804 60.000000000000000
9.793760536258210 4.335425051234665 -0.516240363360997 58.000000000000000
9.794132702771423 4.354077404590598 -0.547089233072312 48.000000000000000
9.789269717495024 4.355032144827121 -0.732736922455432 66.000000000000000
9.770431445892637 4.350591764405024 -0.915847771440744 65.000000000000000
9.770560188877637 4.353565125782524 -1.103220127227516 68.000000000000000
9.776504920243417 4.358433302771175 -1.259485655040947 70.000000000000000
9.769738671583339 4.359156277659977 -1.475321269063073 57.000000000000000
9.504757180972117 4.219686500589646 -1.599803946217172 9.000000000000000
8.826829168547189 3.922500107205565 -1.614783984367198 9.000000000000000
8.226188593308979 3.660146775562552 -1.623269396212823 9.000000000000000
4.335900187984056 1.927839038305066 -1.026725533380448 4.000000000000000
4.237749058311404 1.888602675727569 -1.532064942989784 2.000000000000000
6.209130466313850 2.725530736529606 1.476743615075573 20.000000000000000
7.104388621244285 3.134212043126297 1.219915201624974 1.000000000000000
9.973812445586475 4.391746515095363 1.517464050204063 18.000000000000000
9.806441240235522 4.302598900908592 0.568503743300211 45.000000000000000
9.823017372770657 4.313772610882083 0.444631988644243 58.000000000000000
9.811549831802383 4.325831104973858 0.351307932019155 47.000000000000000
9.805227245935786 4.302876193926380 0.320547541145630 33.000000000000000
9.807853907036570 4.322192988860351 0.289161740870755 44.000000000000000
9.834384694043942 4.321297504422645 0.258163213930717 53.000000000000000
9.821936871510722 4.334994333558313 0.226871399719801 54.000000000000000
9.818993838569469 4.313172551237926 0.195921403525575 48.000000000000000
9.795278202304258 4.322262063379171 0.165448801588854 24.000000000000000
9.758639562175814 4.287708419178685 0.136084633737877 44.000000000000000
9.783120807014384 4.315464160597259 0.103711313670279 61.000000000000000
9.797948084021693 4.310140183827670 0.073367861353854 76.000000000000000
9.807346660707996 4.332260710745828 0.041015526097334 76.000000000000000
9.800177050393220 4.308805601003243 0.010622747690358 45.000000000000000
9.787138892765730 4.322004972862359 -0.020111902770388 56.000000000000000
9.794723304553697 4.304700383960309 -0.050854699187856 61.000000000000000
9.807442332469490 4.327765999406424 -0.083677306755883 53.000000000000000
9.810630598022467 4.317987048708332 -0.113460723324533 90.000000000000000
9.778566615424259 4.323648267040468 -0.143308112150868 66.000000000000000
9.808115019327305 4.314809221229098 -0.175804391778242 49.000000000000000
9.790828491596479 4.326202637630018 -0.206411162708261 48.000000000000000
9.797921590809135 4.308641478002784 -0.237055497822351 56.000000000000000
9.806372555330324 4.330286088818141 -0.270014920585288 51.000000000000000
9.820257283012104 4.324388234249327 -0.300210749238721 65.000000000000000
9.809290215742138 4.318130609808080 -0.361843564262789 57.000000000000000
9.806326362574142 4.335191720871521 -0.393862587060882 51.000000000000000
9.812953943320291 4.317403102020364 -0.424260383831519 56.000000000000000
9.798566357840716 4.330163536934947 -0.455617899157711 59.000000000000000
9.808253693822516 4.322658171991677 -0.485302707658465 68.000000000000000
9.847840165476619 4.317488521592637 -0.521039334763962 34.000000000000000
9.822282499346574 4.326116001962191 -0.549218981252504 43.000000000000000
9.806277226890028 4.322757621954409 -0.733739076733564 44.000000000000000
9.805871500856927 4.325570517903571 -0.919605182998369 53.000000000000000
9.805941695132651 4.328523580131446 -1.107392303718551 55.000000000000000
9.797143185885524 4.327630386040042 -1.261345638772689 69.000000000000000
9.783017912058980 4.325511818292100 -1.475853838461697 50.000000000000000
9.510234218987510 4.184135610447413 -1.598703367189534 9.000000000000000
8.845868235593651 3.894941204866242 -1.617015551441307 10.000000000000000
8.240659210317101 3.633278426771483 -1.624657634611434 9.000000000000000
4.315460404833516 1.905039440638674 -1.018026032980664 4.000000000000000
4.222735481342363 1.852277596573799 -1.520857667164660 2.000000000000000
6.254195606541781 2.717498079549543 1.482230137913510 16.000000000000000
9.965074802970593 4.348784390162081 1.514664984165553 18.000000000000000
9.815898363630811 4.267398612262568 0.567945835380742 46.000000000000000
9.821263873796314 4.274224134605774 0.444192416218105 59.000000000000000
9.813632932808002 4.287713649872018 0.350950843241897 45.000000000000000
9.803507583299078 4.263371636139013 0.320296743748426 32.000000000000000
9.809961468515157 4.284088301417427 0.288875114194190 42.000000000000000
9.840120876186543 4.284568162380523 0.257816700887014 57.000000000000000
9.820280873861917 4.295412800444311 0.226762129522044 56.000000000000000
9.824736443528776 4.276489223415268 0.195622633880555 50.000000000000000
9.797345510409063 4.284204043546623 0.165304674918640 24.000000000000000
9.760596578973187 4.249798664260382 0.135977579931725 44.000000000000000
9.785201589286094 4.277443717192966 0.103638443101360 62.000000000000000
9.796175318363479 4.270672167596459 0.073495022130244 78.000000000000000
9.805681784904664 4.292730872289468 0.041189932241761 71.000000000000000
9.805900012759809 4.272188988915929 0.010466241584157 44.000000000000000
9.822743844925634 4.296941622504889 -0.021849296470850 33.000000000000000
9.845200761200694 4.285306370685248 -0.053511222207445 28.000000000000000
9.880328039108139 4.317060415810033 -0.087799131099592 38.000000000000000
9.834988124892593 4.288486145174275 -0.114702300958085 66.000000000000000
9.821573329172459 4.301466519643824 -0.145821803960293 38.000000000000000
9.888374999278414 4.306799843835734 -0.181005781105414 31.000000000000000
9.859911659588732 4.314070677896652 -0.211011021955821 26.000000000000000
9.885593941219570 4.303570847152514 -0.243241684684827 42.000000000000000
9.882901675385494 4.321011287636452 -0.275556785572693 34.000000000000000
9.866953753099546 4.303423516732366 -0.303499294880310 35.000000000000000
9.841832252774768 4.312226629574070 -0.333695376840581 34.000000000000000
9.882016619108136 4.307239651347800 -0.367648206535553 34.000000000000000
9.871633312463338 4.321556633445439 -0.399174617187903 25.000000000000000
9.885664073530920 4.306532401002030 -0.430437109071321 43.000000000000000
9.886129452042541 4.325224689076691 -0.463444112170431 33.000000000000000
9.854880359462017 4.301725785225827 -0.489220236962897 42.000000000000000
9.883316014920807 4.292088910543470 -0.523903917391378 55.000000000000000
9.898639335286036 4.316586949870853 -0.556540208661572 32.000000000000000
9.904728393230977 4.321827602414785 -0.745053789730926 32.000000000000000
9.878236425568852 4.314608920609956 -0.928742462744382 29.000000000000000
9.874463585013979 4.316102799546442 -1.117029307212419 35.000000000000000
9.847120163749320 4.308092514520524 -1.268516452491493 28.000000000000000
9.829173604184154 4.304564311406963 -1.483069554147081 24.000000000000000
9.515576674418275 4.148597219131361 -1.597602766148644 9.000000000000000
8.842921256913018 3.858993380301712 -1.613994568907870 9.000000000000000
8.247758170688815 3.603609227909246 -1.624165127573138 9.000000000000000
4.292337923207346 1.865608866247385 -1.007002253529997 5.000000000000000
4.209905018447461 1.832585651970021 -1.512752705739519 2.000000000000000
6.273122211679437 2.700046419636337 1.483637143603216 19.000000000000000
9.804065643632059 4.217983480529838 0.938354680275017 36.000000000000000
9.816091901080913 4.230585254565966 0.629072246543663 57.000000000000000
9.830572028544504 4.238977456298088 0.443681736142769 59.000000000000000
9.815566929356594 4.249634028021234 0.350594194813915 46.000000000000000
9.805366268855394 4.225342417334772 0.319975853519119 32.000000000000000
9.811919782662745 4.246006033608182 0.288588678225600 43.000000000000000
9.841976987148584 4.246424588934516 0.257565210801597 53.000000000000000
9.829673670397181 4.260154587384520 0.226333651611192 56.000000000000000
9.826601030276377 4.238391697737285 0.195442737197991 50.000000000000000
9.799264184913749 4.246183789694570 0.165161229399575 25.000000000000000
9.754931396156682 4.209071947493442 0.136155225834753 49.000000000000000
9.787131991119532 4.239438149415932 0.103565871388182 60.000000000000000
9.790506863352110 4.229847295566614 0.073788323777656 73.000000000000000
9.811323891867932 4.256095207350953 0.041010105884160 69.000000000000000
9.807747392656026 4.234151107360958 0.010499061386176 46.000000000000000
9.880676608719259 4.280227544173968 -0.024794939410518 60.000000000000000
9.873261696075195 4.257083485742925 -0.054897826417858 60.000000000000000
9.897314769217882 4.284445224723100 -0.088562756302914 54.000000000000000
9.915254292700162 4.280111483851570 -0.119485050838493 52.000000000000000
9.886918473262574 4.287566666916632 -0.149826707784916 62.000000000000000
9.912731006682208 4.276997166191308 -0.182323262011520 47.000000000000000
9.888025994303343 4.285813240270571 -0.212633737735222 54.000000000000000
9.898777607032372 4.269523995248548 -0.243781046015644 52.000000000000000
9.903611616769149 4.289814579885629 -0.276685870897724 55.000000000000000
9.921076800497746 4.285014901800238 -0.307404507899772 61.000000000000000
9.922031647190536 4.303933400718648 -0.339955977795724 51.000000000000000
9.902622212726833 4.276034484062436 -0.368846022004345 47.000000000000000
9.884855319968061 4.287558048174390 -0.399712911348005 51.000000000000000
9.895123903420018 4.271059262584572 -0.430623653671815 56.000000000000000
9.888237750324020 4.286877330997768 -0.462889493070376 53.000000000000000
9.908922218723841 4.283349203944439 -0.493894429759111 65.000000000000000
9.908097139549021 4.281076201141190 -0.556680422057824 48.000000000000000
9.891929813034713 4.277803394222943 -0.742311380099030 48.000000000000000
9.891386942029678 4.280590206442298 -0.929281024162668 46.000000000000000
9.894994817204541 4.284908567640983 -1.118781646940457 55.000000000000000
9.897076082786059 4.288256822398253 -1.275692108418782 52.000000000000000
9.878969304930507 4.284749115367674 -1.491032370020120 55.000000000000000
9.513457317422318 4.110290918636053 -1.594882847766240 10.000000000000000
8.850791122651394 3.827216321568898 -1.613600199896995 10.000000000000000
8.251102551949726 3.572573084754850 -1.622731749076913 8.000000000000000
4.289695106314038 1.848848421712120 -1.004679761913855 6.000000000000000
4.210884115232946 1.817290074957569 -1.511312529531667 2.000000000000000
6.235885363802018 2.663120935507678 1.476314566080680 19.000000000000000
9.813236090820567 4.182808798642498 0.937655835367996 32.000000000000000
9.821505702716108 4.193969749126239 0.628444853119551 59.000000000000000
9.832260319182010 4.200910071909959 0.443219041375265 59.000000000000000
9.809868691025581 4.208759735128865 0.350357360359002 43.000000000000000
9.807075707080712 4.187335618164227 0.319655153997789 36.000000000000000
9.813727340559570 4.207961853862884 0.288303150953411 43.000000000000000
9.836194908243609 4.205503681686764 0.257504079717500 57.000000000000000
9.831454232523773 4.222061462944197 0.226118633694039 55.000000000000000
9.832059379188072 4.201735639941163 0.195144411233196 47.000000000000000
9.797292879380832 4.206774453831983 0.165148650427166 25.000000000000000
9.760322009093116 4.172650543791349 0.135907365080260 44.000000000000000
9.788914610926909 4.201485648007164 0.103493757299738 60.000000000000000
9.795895159319919 4.193318877743764 0.073586387824012 79.000000000000000
9.805611829334428 4.215246879881718 0.041363239167908 73.000000000000000
9.816927472948437 4.198972329960000 0.010153681203521 46.000000000000000
9.882562768661940 4.241952817090095 -0.024730610970312 53.000000000000000
9.886291116175654 4.223067524812393 -0.055436659739141 56.000000000000000
9.899253204536725 4.246101910796867 -0.088429306537251 51.000000000000000
9.935766478563304 4.248760972897671 -0.120497505992824 65.000000000000000
9.885060652018634 4.247869195411340 -0.149373548727788 61.000000000000000
9.910844986818180 4.237227419129596 -0.181825004600204 45.000000000000000
9.882470237370390 4.244685766528391 -0.211815590606842 45.000000000000000
9.904372817870053 4.232597407958963 -0.243755224572967 54.000000000000000
9.898114083647348 4.248626013653919 -0.275751722142605 48.000000000000000
9.926653618849709 4.248030018948896 -0.307332097092668 60.000000000000000
9.923969685762854 4.265524724662711 -0.339542105538624 54.000000000000000
9.908205552734470 4.239118741230612 -0.368726328309706 54.000000000000000
9.916589427085638 4.260568885867869 -0.401960146683921 45.000000000000000
9.896997516833796 4.232738928949047 -0.430104568308204 55.000000000000000
9.893919445687429 4.249986408017321 -0.462699062987673 53.000000000000000
9.907040838413611 4.243608606203225 -0.492928878453383 66.000000000000000
9.913074349868921 4.225355251219952 -0.525370135439109 49.000000000000000
9.909975203142919 4.242734051200046 -0.556021868584745 40.000000000000000
9.904959792676797 4.243733333392683 -0.742850604958542 40.000000000000000
9.911832272098012 4.249318252735748 -0.930896312096219 45.000000000000000
9.896933613219778 4.246635679432103 -1.117499332514839 49.000000000000000
9.891664276980260 4.247189874868084 -1.272911196970158 50.000000000000000
9.895658655502160 4.252117156502763 -1.492313856272548 47.000000000000000
9.507515813550283 4.070672250798864 -1.591352237481851 10.000000000000000
8.854884480513144 3.794066964382296 -1.612329979841564 10.000000000000000
8.250678729216336 3.540202912895964 -1.620357070943858 9.000000000000000
4.290609565825568 1.833240555598877 -1.003633841188860 8.000000000000000
4.197892487044150 1.797761257350103 -1.503205019321426 3.000000000000000
6.119808753315275 2.599646002221633 1.456781115601699 23.000000000000000
9.784802178868318 4.133737896955424 0.935315143991446 34.000000000000000
9.815528477071092 4.153199220719884 0.627679190782776 62.000000000000000
9.830048141883127 4.161484525934583 0.442781333151109 63.000000000000000
9.818986993971976 4.173572944768182 0.349882205345760 45.000000000000000
9.804887795833732 4.147978580030085 0.319406545250897 32.000000000000000
9.815386737782939 4.169955362264304 0.288017830459508 44.000000000000000
9.845241281280778 4.170235598969896 0.257063299626997 61.000000000000000
9.818101299875536 4.178408331834973 0.226332515272711 60.000000000000000
9.829883173313556 4.162302382710990 0.195083903476185 51.000000000000000
9.802652708107464 4.170233863036785 0.164875755102167 25.000000000000000
9.765574220275616 4.136249931515579 0.135659750470527 45.000000000000000
9.798033402864913 4.166369588543645 0.103113652556819 65.000000000000000
9.797398043540557 4.155408908582558 0.073550271908501 78.000000000000000
9.799730387975226 4.174478023882742 0.041717808236935 76.000000000000000
9.818486731522972 4.160977733777798 0.010187173839556 46.000000000000000
9.884298455266906 4.203708414646670 -0.024665735238213 53.000000000000000
9.884227921767510 4.183429739027616 -0.055124705729560 58.000000000000000
9.893564205114650 4.204991087668247 -0.087845706071061 51.000000000000000
9.944948126102309 4.213142740904885 -0.120802531502304 71.000000000000000
9.886781593083318 4.209621319144546 -0.149167266130175 63.000000000000000
9.912540311506472 4.198914422882524 -0.181585644144202 45.000000000000000
9.880482470375606 4.205047747737297 -0.211267830628650 44.000000000000000
9.909828448086726 4.195691789074772 -0.243729163011270 61.000000000000000
9.903650613647303 4.211731733677581 -0.275701749372847 50.000000000000000
9.928351927378301 4.209664564943267 -0.306953177856589 60.000000000000000
9.910820117348429 4.221561268127488 -0.337853988584950 56.000000000000000
9.902441232203227 4.198026775120908 -0.367616498057924 48.000000000000000
9.907204069894711 4.218012727851374 -0.400449906987647 44.000000000000000
9.898722640556308 4.194471769629786 -0.429584909739513 57.000000000000000
9.888275430823317 4.208902043630147 -0.461413143226663 56.000000000000000
9.912463435382778 4.206702918547251 -0.492715493247887 63.000000000000000
9.922178982654641 4.189820227904150 -0.525521742442549 50.000000000000000
9.907974582889558 4.203035848503291 -0.554962983324572 43.000000000000000
9.895538703691578 4.201278392558748 -0.740574645792059 47.000000000000000
9.917323534869166 4.212399164629488 -0.930360032588900 46.000000000000000
9.902425991117537 4.209780142934108 -1.116824020897822 51.000000000000000
9.911945145054212 4.215884993269114 -1.274778988384259 49.000000000000000
9.901193538543623 4.215274558809057 -1.491367082845470 43.000000000000000
9.519774722419275 4.037945111017535 -1.591870370525125 10.000000000000000
8.858851318536084 3.760921178057671 -1.611059821015943 10.000000000000000
8.257434439004944 3.510538976544765 -1.619864502404391 8.000000000000000
4.287836131225809 1.816538321565289 -1.001310441362566 8.000000000000000
4.198741345632972 1.782539264659476 -1.501763982046447 4.000000000000000
6.145859394525324 2.585068381701234 1.459356608655393 28.000000000000000
9.793666260807601 4.098663262068669 0.934617749853770 34.000000000000000
9.809383006397571 4.112515704269100 0.626914617691938 61.000000000000000
9.835188263275137 4.124873576811865 0.442295432395783 59.000000000000000
9.816722492405457 4.134203596096199 0.349587059883512 42.000000000000000
9.813801127287746 4.112830466797917 0.318943578719408 36.000000000000000
9.816896368298920 4.131979092639796 0.287733299264519 44.000000000000000
9.846648991524269 4.132190260285157 0.256813352910674 59.000000000000000
9.815813569126128 4.139052904949168 0.226226899639232 61.000000000000000
9.827547629755994 4.122923940328292 0.195024747857997 51.000000000000000
9.804123499890151 4.132304048647811 0.164733731144414 25.000000000000000
9.770687650366870 4.099854735965636 0.135412369550683 44.000000000000000
9.792031967129740 4.125671088173718 0.103351189075740 59.000000000000000
9.795001137360556 4.116158134364753 0.073680524812656 80.000000000000000
9.804925887507817 4.137955759552199 0.041539783325760 69.000000000000000
9.823647404802548 4.124399292439222 0.010031337991487 45.000000000000000
9.893377799071992 4.168274827916335 -0.025003351333872 54.000000000000000
9.885753998743501 4.145240469751684 -0.055024768777408 57.000000000000000
9.902681155769393 4.169521316524964 -0.088160503437472 51.000000000000000
9.939008508645180 4.172000942159670 -0.120161494989505 69.000000000000000
9.892097943394397 4.172797369284154 -0.149209340243874 64.000000000000000
9.902848366514432 4.156489877445125 -0.180565499232751 46.000000000000000
9.885818633303394 4.168236928383365 -0.211262829119291 44.000000000000000
9.907657202146245 4.156027969254936 -0.243136009836949 60.000000000000000
9.905306589359222 4.173449318152819 -0.275356130859546 50.000000000000000
9.929900895676456 4.171336979584552 -0.306573819476383 56.000000000000000
9.912438257997541 4.183270109167765 -0.337438247424180 56.000000000000000
9.907729331237029 4.161163104042785 -0.367496043465615 52.000000000000000
9.920058905840389 4.183884084934377 -0.400990204122959 45.000000000000000
9.896559312137352 4.154849359323379 -0.428711337161924 56.000000000000000
9.889929058928306 4.170677014123342 -0.460856639437120 56.000000000000000
9.914009820645553 4.168432752841753 -0.492125369992374 62.000000000000000
9.912465614194646 4.147425394609755 -0.523729892368309 50.000000000000000
9.920750479121367 4.168911349240176 -0.555503093227621 43.000000000000000
9.904571527080973 4.165817050247497 -0.740644689064543 50.000000000000000
9.922675735360817 4.175493247869781 -0.929823753966130 45.000000000000000
9.904069120371911 4.171551676285063 -1.115540833811326 49.000000000000000
9.902530535445930 4.173530733870663 -1.271332418296054 62.000000000000000
9.891846743938320 4.172978628135183 -1.487446969375187 43.000000000000000
9.520884772566641 4.001117400590687 -1.589958638145934 9.000000000000000
8.855354085959489 3.725125479586666 -1.608036299473165 10.000000000000000
8.264079754273876 3.480860756007374 -1.619372101982966 9.000000000000000
4.281363018403735 1.798782071257463 -0.997709357984184 10.000000000000000
4.203014764942647 1.768353022105373 -1.501989761421944 6.000000000000000
6.153106524332587 2.564076177359155 1.459023810365691 26.000000000000000
9.791130158814244 4.059476209032226 0.933428770001732 33.000000000000000
9.810590179063100 4.074641041994525 0.626243097673303 61.000000000000000
9.832668351846346 4.085540569226495 0.441859281883589 59.000000000000000
9.825567524230463 4.099019274034887 0.349112031333049 43.000000000000000
9.815068530676701 4.074920946701667 0.318624455106152 36.000000000000000
9.822011868424125 4.095412112329612 0.287365423722698 44.000000000000000
9.847908540404388 4.094182613268188 0.256563851364217 58.000000000000000
9.820878664390674 4.102501896196500 0.225906808326344 58.000000000000000
9.832568609325083 4.086333591059670 0.194727523826773 50.000000000000000
9.786675854113586 4.087541917871661 0.165247815143111 26.000000000000000
9.764394743287724 4.059353520177027 0.135593452113916 48.000000000000000
9.797120847194124 4.089195027118308 0.103126153169271 59.000000000000000
9.803714632879371 4.081056837531079 0.073313097360258 75.000000000000000
9.806230378659611 4.100076107562231 0.041539842967476 76.000000000000000
9.824914959694379 4.086456233552411 0.010065371210826 45.000000000000000
9.887322561555477 4.127325385006358 -0.024534786944265 55.000000000000000
9.890882594029673 4.108451419654330 -0.055137766299608 57.000000000000000
9.892923522651468 4.127149930378707 -0.087349735247866 51.000000000000000
9.932898569268703 4.130938756468012 -0.119519027512016 68.000000000000000
9.893525248139344 4.134609037985854 -0.149002402486060 62.000000000000000
9.907978756364255 4.119632456897975 -0.180584964824969 46.000000000000000
9.887268041477085 4.130061715181014 -0.210985679703838 43.000000000000000
9.894084156390230 4.112325237320789 -0.241691415007291 55.000000000000000
9.906812563970176 4.135197152955769 -0.275010201035637 48.000000000000000
9.935046804157366 4.134401397039483 -0.306500761024457 56.000000000000000
9.907727893887046 4.104071248864201 -0.335967104006188 54.000000000000000
9.905386418046502 4.121558629410472 -0.366714699412357 52.000000000000000
9.895380418264688 4.135982867786197 -0.398108788132260 46.000000000000000
9.905464727051474 4.119397771058587 -0.428897658562153 55.000000000000000
9.895171216883622 4.133859840978801 -0.460665113244885 54.000000000000000
9.915405732225654 4.130192913537243 -0.491534580249179 63.000000000000000
9.917543244872228 4.110564155603271 -0.523492052242198 55.000000000000000
9.922187682876206 4.130627716017685 -0.554843460920470 42.000000000000000
9.898550371740960 4.124881697243879 -0.738836169975436 44.000000000000000
9.905551356038918 4.130412869712544 -0.926055331971685 49.000000000000000
9.909277289016737 4.134715683546460 -1.114865321927950 50.000000000000000
9.907752992606262 4.136694227921197 -1.270542999714837 61.000000000000000
9.897084217767976 4.136196144383774 -1.486499381276585 46.000000000000000
9.525532717412247 3.965667912908884 -1.588856650888764 9.000000000000000
8.859059306397327 3.692042148906637 -1.606765197369215 10.000000000000000
8.270615807957924 3.451175796170446 -1.618879918229452 9.000000000000000
4.278452179332958 1.782169933313526 -0.995384825211139 10.000000000000000
4.196772873028109 1.751088124955245 -1.497213768434970 11.000000000000000
6.156520694543056 2.541830421961848 1.458108997085676 26.000000000000000
8.028919440916949 3.319995947998351 1.305511442406713 1.000000000000000
9.784674100919606 4.019008392129720 0.932077351108028 30.000000000000000
9.815414537578613 4.038152680124043 0.625617843116075 62.000000000000000
9.826226099052970 4.044922141632171 0.441449126209009 59.000000000000000
9.819239438986163 4.058370804204259 0.348878861083593 42.000000000000000
9.812425666340184 4.035694000563211 0.318378092453255 37.000000000000000
9.823229513034269 4.057495139902912 0.287081556123942 44.000000000000000
9.849019927921137 4.056212657919033 0.256314794987625 57.000000000000000
9.818285040628789 4.063246441998572 0.225802407480926 59.000000000000000
9.829926936981632 4.047055156760663 0.194669581791498 48.000000000000000
9.784067207582567 4.048390396846202 0.165239121497316 23.000000000000000
9.761697224189081 4.020308624922976 0.135632761500837 46.000000000000000
9.805828484253352 4.054094432082266 0.102746299226108 60.000000000000000
9.804777179127271 4.043236175166925 0.073278441570778 75.000000000000000
9.808393362358759 4.024406970442158 0.041542108628133 75.000000000000000
9.822275395502466 4.047204685141693 0.010290311517133 48.000000000000000
9.896121042350272 4.091903127269106 -0.024871952532209 55.000000000000000
9.892114608208983 4.070314048674135 -0.055036824032470 55.000000000000000
9.886741146122928 4.086252143037512 -0.086762840535659 46.000000000000000
9.934135175645531 4.092670516437437 -0.119349135774295 67.000000000000000
9.894802551093408 4.096450960536373 -0.148794915026058 60.000000000000000
9.894196110620593 4.076036053116241 -0.179301590289231 41.000000000000000
9.884817023563448 4.090562748224471 -0.210435829985314 39.000000000000000
9.887828175770613 4.071465845810238 -0.240812012359541 51.000000000000000
9.900671841274717 4.094259565471035 -0.274072082909089 44.000000000000000
9.932549016223808 4.094780259524313 -0.305813328186182 55.000000000000000
9.905134155353997 4.064557823642559 -0.335230035548572 47.000000000000000
9.895386143723311 4.079325348938667 -0.365271096597736 41.000000000000000
9.904199144678529 4.100536429266100 -0.398305928082700 46.000000000000000
9.899251538546602 4.078506097002602 -0.427668928584665 56.000000000000000
9.896531444097329 4.095694322805215 -0.460107833894205 55.000000000000000
9.916653246668972 4.091990801296348 -0.490943346541266 63.000000000000000
9.911239995965023 4.069680825393860 -0.522086660300258 53.000000000000000
9.919733381989738 4.091043975803231 -0.553782810368295 44.000000000000000
9.899831415627881 4.086732557217175 -0.737966044199658 43.000000000000000
9.910595351198792 4.093599560373917 -0.925517617243038 47.000000000000000
9.903192271938103 4.093853846330248 -1.112365269865724 49.000000000000000
9.905420507714878 4.097199958528975 -1.268423546735924 61.000000000000000
9.891096744060755 4.095406547879463 -1.483320305576766 42.000000000000000
9.533733643447237 3.931555792862099 -1.588565132713390 10.000000000000000
8.866315008510311 3.660272465265550 -1.606370747538705 10.000000000000000
8.269707321159965 3.418901589042420 -1.616503768146509 9.000000000000000
4.275472870657848 1.765583521492275 -0.993059559124178 10.000000000000000
6.167377354530312 2.522032711181026 1.458356293454025 25.000000000000000
7.916533920944702 3.219713168920009 1.291559722787069 18.000000000000000
9.785584239813899 3.981296751881075 0.931053956134758 29.000000000000000
9.816330431658546 4.000337208859818 0.624946990309115 62.000000000000000
9.823386621898640 4.005729753871165 0.441015219665009 61.000000000000000
9.827806862868879 4.023205036580151 0.348404185739408 42.000000000000000
9.817160031541656 3.999214808054631 0.317987787806552 37.000000000000000
9.828063304859615 4.020962761250800 0.286714023345465 46.000000000000000
9.853750182176189 4.019611288964114 0.255970395456018 57.000000000000000
9.819296974750850 4.025384557345816 0.225591287459121 59.000000000000000
9.823360291641718 4.006493054291070 0.194732263998999 52.000000000000000
9.788828069353498 4.011993814465910 0.164968565269455 24.000000000000000
9.758842018511213 3.981318293224632 0.135673193071034 45.000000000000000
9.806882691216023 4.016266798336645 0.102676193879636 60.000000000000000
9.805692271332044 4.005453098283141 0.073244234566605 73.000000000000000
9.805486192056742 3.985295285625213 0.041722719112200 76.000000000000000
9.815713954925950 4.006670015267233 0.010706456845494 48.000000000000000
9.897269030528735 4.053770164568789 -0.024805654716503 53.000000000000000
9.896958710984205 4.033552307520239 -0.055149140688014 53.000000000000000
9.887908314169881 4.048148179238254 -0.086625620304773 41.000000000000000
9.916412410472368 4.047745739910710 -0.117992924984921 66.000000000000000
9.892173273253885 4.056985150047296 -0.148338110926931 59.000000000000000
9.899023481808795 4.039270463042854 -0.179319474066539 43.000000000000000
9.885963931072066 4.052471570197653 -0.210157220562731 40.000000000000000
9.900190281381098 4.037403508451177 -0.241351376597430 54.000000000000000
9.905623640098462 4.057453134010501 -0.274020569465025 44.000000000000000
9.926134435944089 4.053876915306176 -0.304817612342454 52.000000000000000
9.917416231758173 4.030445770766093 -0.335770089311616 43.000000000000000
9.903981197283096 4.043904625130239 -0.365479755289058 36.000000000000000
9.912888615216985 4.065078535583950 -0.398503511356662 46.000000000000000
9.904124676086868 4.041720866801754 -0.427500879158051 57.000000000000000
9.901489581778446 4.058904384291395 -0.459915862816598 55.000000000000000
9.917751892083718 4.053826488671262 -0.490351552083142 65.000000000000000
9.912273323700585 4.031549990741325 -0.521458590288682 51.000000000000000
9.917120877562377 4.051522589161067 -0.552721273412430 38.000000000000000
9.897224715460515 4.047291459379537 -0.736625264328162 42.000000000000000
9.911768092510798 4.055461936852197 -0.924440646568701 47.000000000000000
9.908106802883355 4.057077405602357 -1.111688626038991 48.000000000000000
9.910355694092702 4.060422043621628 -1.267633321259736 61.000000000000000
9.892341892125209 4.057359462178951 -1.481627782733006 42.000000000000000
9.534426272955182 3.894806226930527 -1.586652245516414 9.000000000000000
8.873453714275534 3.628489489401289 -1.605976439972469 10.000000000000000
8.283357628583413 3.391770605981094 -1.617895985635777 8.000000000000000
4.268785588766001 1.747990643893928 -0.989455905151686 10.000000000000000
6.351465669430731 2.557953408119786 1.485312385607235 27.000000000000000
7.842982040840896 3.164466417944226 1.282913088080119 21.000000000000000
9.778805929786721 3.940985393170052 0.929705016388778 28.000000000000000
9.813323762112891 3.961227628665640 0.624231918587341 64.000000000000000
9.827938951964697 3.969245693504732 0.440530989429443 60.000000000000000
9.817394264302179 3.981350042064761 0.348233765426025 41.000000000000000
9.821755427018104 3.962733339639996 0.317597353034937 38.000000000000000
9.825219465900478 3.981758973186331 0.286515618354017 47.000000000000000
9.854569393773486 3.981692945223102 0.255722115644014 58.000000000000000
9.823932906292576 3.988905742773824 0.225272464478041 61.000000000000000
9.831713833147365 3.971337111510678 0.194316674392765 48.000000000000000
9.782147575707762 3.971611729631434 0.165093116282259 22.000000000000000
9.759600065404083 3.943712145732505 0.135571061074723 47.000000000000000
9.800255606729220 3.975801204889308 0.102917302123167 62.000000000000000
9.806460381040516 3.967707536088085 0.073210478758036 78.000000000000000
9.813736955342693 3.950201938986410 0.041367426458191 72.000000000000000
9.816523117241195 3.968880713916093 0.010742853549415 46.000000000000000
9.898268620190573 4.015674935974303 -0.024738436152922 51.000000000000000
9.901664505594852 3.996795905258338 -0.055261698026532 52.000000000000000
9.881399958893969 4.007399695436050 -0.086036151553698 41.000000000000000
9.939927897830771 4.017561000012478 -0.119245437833508 57.000000000000000
9.893149445113481 4.018918612862862 -0.148129508793996 58.000000000000000
9.903712261919367 4.002517975284988 -0.179337237122311 46.000000000000000
9.902005821164190 4.019758413693211 -0.210969106990312 23.000000000000000
9.886100051763464 3.993994565076875 -0.239902126259013 39.000000000000000
9.902919407103472 4.017985834218791 -0.273376542064846 47.000000000000000
9.927076328091006 4.015709990833116 -0.304435707403969 30.000000000000000
9.914525462488221 3.991007838588587 -0.335031895738133 44.000000000000000
9.912446097288683 4.008464868518132 -0.365688628755200 36.000000000000000
9.903555190607568 3.984853394944963 -0.396497663018110 47.000000000000000
9.897590364686952 4.000954609567060 -0.426270281280343 59.000000000000000
9.906308657180059 4.022127617124127 -0.459723892623541 56.000000000000000
9.926212265855071 4.018334062087689 -0.490514356037816 61.000000000000000
9.909401175345167 3.992136422731392 -0.520440409908025 43.000000000000000
9.910598245228861 4.010742482454361 -0.551257952731084 37.000000000000000
9.886968620546442 4.005255228385394 -0.734342764880634 46.000000000000000
9.909055011307855 4.016033059839387 -0.922823758198786 46.000000000000000
9.905428384845987 4.017670436546325 -1.109795006393974 49.000000000000000
9.911433787397826 4.022334928149519 -1.266177645929155 61.000000000000000
9.890679962084404 3.980071014678373 -1.477496800114596 42.000000000000000
9.546062236695896 3.861979739382491 -1.587171787009545 10.000000000000000
8.887848144265050 3.599256530684968 -1.607336947457535 9.000000000000000
8.285888095375212 3.360779564685060 -1.616461932914368 9.000000000000000
4.272963354785122 1.733571805485212 -0.989685798439005 11.000000000000000
7.852232014223829 3.137547264206006 1.282486687462444 22.000000000000000
9.775637580910940 3.902070825276070 0.928520196812749 28.000000000000000
9.817719665605663 3.924811347746157 0.623607459194208 61.000000000000000
9.824794995748457 3.930153069577855 0.440098543295967 59.000000000000000
9.810580489574647 3.940928888972891 0.348004177628605 43.000000000000000
9.814884143871060 3.922329374908813 0.317426002541478 40.000000000000000
9.818446326332509 3.941302530978149 0.286403030831389 44.000000000000000
9.855241104188019 3.943819914990129 0.255474647226971 57.000000000000000
9.828429585886148 3.952432412198178 0.224953634384978 58.000000000000000
9.821056987007317 3.929585624229304 0.194501686757128 51.000000000000000
9.779072661798203 3.932630590258881 0.165087471570488 23.000000000000000
9.760211319124346 3.906151202039908 0.135469505697238 46.000000000000000
9.797234314534364 3.936751614889317 0.103004386734001 66.000000000000000
9.810855010028243 3.931305247249085 0.073010480592578 75.000000000000000
9.818083509771524 3.913791777511918 0.041191011555923 69.000000000000000
9.824732064852244 3.933762942239895 0.010398530694198 47.000000000000000
9.902889318311336 3.978938708644151 -0.024873474748387 52.000000000000000
9.902459765542275 3.958739582110326 -0.055159640165805 51.000000000000000
9.893563540529842 3.973367175435456 -0.086575576959429 41.000000000000000
9.918094179389554 3.971513379277468 -0.117648478532031 46.000000000000000
9.894655273611518 3.942883493609870 -0.147710513126273 61.000000000000000
9.908262215868808 3.965778621717362 -0.179355119053275 45.000000000000000
9.880280964097805 3.973753028298177 -0.209052939384398 50.000000000000000
9.894421927535902 3.958621925792599 -0.240156994310691 50.000000000000000
9.903821041944722 3.979909354170843 -0.273027802784737 48.000000000000000
9.924102796082527 3.976268371788819 -0.303745388011070 57.000000000000000
9.922779416499480 3.955553305219325 -0.335252368379566 42.000000000000000
9.890670542526705 3.962497763650902 -0.363247996888977 40.000000000000000
9.898411853413116 3.962923531625449 -0.425747067823001 60.000000000000000
9.903473985022536 3.982714800807713 -0.458798847110254 54.000000000000000
9.911981177935129 3.974971086585725 -0.488410824624947 64.000000000000000
9.910132710425813 3.954089513545838 -0.519811114665454 44.000000000000000
9.918936751577341 3.975291845740642 -0.551397166729773 41.000000000000000
9.884036459628254 3.965955638788529 -0.732999532778051 49.000000000000000
9.906184669312713 3.976666396576135 -0.921205859408803 42.000000000000000
9.898861543903147 3.977019898962126 -1.107291720229295 52.000000000000000
9.904918984801297 3.981672929276911 -1.263390408855406 59.000000000000000
9.895190109036987 3.943428670624257 -1.476546948812131 45.000000000000000
9.553883127625364 3.827839818216873 -1.586880898435742 9.000000000000000
8.879998319004079 3.562344862270237 -1.603433788368226 9.000000000000000
8.291980499684286 3.331068645775119 -1.615970172793473 8.000000000000000
4.273438801244805 1.718107071705020 -0.988637420429625 12.000000000000000
4.160980870384249 1.664658183471474 -1.471651471385837 0.000000000000000
6.403871095310467 2.550639987027978 1.491933083922568 19.000000000000000
7.522148735657042 2.969886321477901 1.247332967620008 23.000000000000000
9.749630007379050 3.855438894174597 0.926360096800533 27.000000000000000
9.821977685341047 3.888408062954767 0.622983124138052 57.000000000000000
9.829061279313924 3.893719704049545 0.439615359350400 59.000000000000000
9.818719694208037 3.905835166903984 0.347530298653661 41.000000000000000
9.811627087255967 3.883310463174155 0.317182896806039 36.000000000000000
9.819062978450475 3.903553023652620 0.286121865342820 43.000000000000000
9.848200560987991 3.903381335996187 0.255421110265400 53.000000000000000
9.829008491701236 3.914658733551164 0.224743773457197 55.000000000000000
9.829129291759937 3.894464212315398 0.194086442324532 49.000000000000000
9.779619973872675 3.895024731037239 0.164950389273921 25.000000000000000
9.768234485189229 3.871238164758196 0.135081085447533 46.000000000000000
9.797832250881179 3.899077420117123 0.102936655718438 67.000000000000000
9.818892332306316 3.896220640767723 0.072643234191298 76.000000000000000
9.818510815129336 3.876097932685454 0.041194133744988 69.000000000000000
9.825256360223884 3.896024155226712 0.010435741322276 44.000000000000000
9.911145502164651 3.943520743338837 -0.025210842501277 53.000000000000000
9.899330866632900 3.919416250142731 -0.054842777318513 52.000000000000000
9.886745189814128 3.932734722105351 -0.085984188688491 40.000000000000000
