# This PCD file was generated using the MATLAB® pcwrite function
# from Computer Vision Toolbox®.
# .PCD v.7 - Point Cloud Data file format
VERSION .7
FIELDS x y z intensity
SIZE 8 8 8 8
TYPE F F F F
COUNT 1 1 1 1
WIDTH 635
HEIGHT 1
VIEWPOINT 0 0 0 1 0 0 0
POINTS 635
DATA ascii
56.040079281391293 -22.998383412541134 2.305947370840318 1.000000000000000
59.858083002349886 -24.720848392119319 2.237375199961847 1.000000000000000
60.640890851963789 -24.905589531047074 2.062733532827772 1.000000000000000
32.196352446651652 -13.258797974896270 0.918797988234446 0.000000000000000
60.417966286405452 -24.887819508602714 1.670596864179308 1.000000000000000
60.344234256318643 -24.956696769273133 1.477370605992179 1.000000000000000
23.087844311813647 -9.482792800842665 0.503664733928719 1.000000000000000
22.905316941866978 -9.440068044362233 0.429776525934821 0.000000000000000
22.817628846745691 -9.439366126572482 0.355898478970702 0.000000000000000
18.482290380197103 -7.586559409855554 0.204297915911492 0.000000000000000
18.272931953330485 -7.560710854433061 0.147952255833799 1.000000000000000
18.260140003421203 -7.509063596696326 0.089755409583087 6.000000000000000
18.218159295260403 -7.520911782200417 0.031436306901192 6.000000000000000
18.215737226296497 -7.474528746836153 -0.027052524021011 8.000000000000000
18.151670706630917 -7.476239115835892 -0.083956275608612 5.000000000000000
18.152878063419777 -7.507656983229169 -0.144276830466376 12.000000000000000
18.139180778222986 -7.493832792041522 -0.201324864124838 52.000000000000000
18.110759184249059 -7.435408139109296 -0.258589358609164 6.000000000000000
18.097040201187603 -7.459924492962108 -0.317182378811615 7.000000000000000
18.072065275288402 -7.479637005401634 -0.375929716422775 40.000000000000000
18.097767228148381 -7.446034099370952 -0.433693502168161 22.000000000000000
18.330520697954405 -7.583359756244290 -0.507048351689987 6.000000000000000
18.090728866637466 -7.466059488429801 -0.550427775315764 21.000000000000000
18.203095434392953 -7.471809828192064 -0.615819037382959 53.000000000000000
18.126633047523224 -7.467838995324710 -0.670322188663386 8.000000000000000
18.082549536048081 -7.478846797190344 -0.727700782558351 54.000000000000000
18.194524144170536 -7.484547101263097 -0.791261517339455 15.000000000000000
18.103000053555853 -7.473594315811630 -0.846150325739519 16.000000000000000
18.109283676408818 -7.468936908394358 -0.903470582707823 18.000000000000000
18.150549614450032 -7.473145746251664 -1.024091566893110 8.000000000000000
17.703123249479127 -7.299463950844237 -1.045852952690933 9.000000000000000
17.383341862013879 -7.182630395217906 -1.074016797037785 9.000000000000000
17.085426535741085 -7.074793044314949 -1.105238604130979 9.000000000000000
16.736359495121444 -6.906721648337124 -1.124191267593296 9.000000000000000
16.435396576416700 -6.796012442132160 -1.150772130635701 9.000000000000000
16.265936764363531 -6.676692836361213 -1.183329342407326 9.000000000000000
15.769681618937391 -6.502510819032951 -1.236348731686536 9.000000000000000
15.512835872414628 -6.409942396331756 -1.261624116575997 10.000000000000000
15.175132556765710 -6.246378672453032 -1.270005170665583 9.000000000000000
14.792777718583588 -6.093918495209569 -1.275888468274089 7.000000000000000
14.587608444359370 -6.023212602245056 -1.298761025908767 8.000000000000000
12.910019949876157 -5.343313118117694 -1.349378608287486 8.000000000000000
11.625011625579580 -4.776918957912105 -1.394399675802302 9.000000000000000
9.380807333223899 -3.854494360249134 -1.378601784978563 8.000000000000000
8.375189610387066 -3.460690825229261 -1.379134961436346 9.000000000000000
7.713073903850067 -3.188228973741459 -1.389100641419575 13.000000000000000
6.753123371995257 -2.775742959391395 -1.430453176944233 11.000000000000000
5.189446856116132 -2.146867917294009 -1.565085901271974 12.000000000000000
4.007139428172414 -1.650372545835951 -1.692723047632138 14.000000000000000
32.176060104761845 -13.403471610044999 2.161046843738405 1.000000000000000
59.664412491611273 -24.783917132028982 2.421704344388965 2.000000000000000
59.397856975725240 -24.769708104138836 2.223346753628203 2.000000000000000
32.143775632164520 -13.315490564313503 1.022085819341505 0.000000000000000
32.253285357874461 -13.417713617844797 0.918355894948163 0.000000000000000
63.308379974252837 -26.378165361862408 1.724439954607099 2.000000000000000
59.787620268266501 -24.965896128944383 1.466555097090587 1.000000000000000
23.029973852648787 -9.553283302379862 0.502391658535725 1.000000000000000
22.825734320145937 -9.500012614497322 0.428662909951734 0.000000000000000
22.759932390785924 -9.508852173856074 0.354782479803904 0.000000000000000
18.634723363949210 -7.734170484330885 0.200239334825689 2.000000000000000
18.323531257608199 -7.661174400023229 0.145343412443185 0.000000000000000
18.227418433603859 -7.570892645499129 0.088827039163430 4.000000000000000
18.199920032320403 -7.589291071112162 0.030137752640085 4.000000000000000
18.190398389185518 -7.539541125364777 -0.028170524245794 7.000000000000000
18.140846637326401 -7.547724010136505 -0.085560981651992 5.000000000000000
18.116526696212922 -7.567426011166515 -0.145020251430448 11.000000000000000
18.110130254019925 -7.556909726199851 -0.202330854926880 51.000000000000000
18.092806016562403 -7.503392131373379 -0.260058931917815 9.000000000000000
18.064473460096643 -7.521180724915431 -0.318019086267421 9.000000000000000
18.053935351577795 -7.547514990074199 -0.377468437486355 9.000000000000000
18.040034291934877 -7.526460402680304 -0.493495122721980 40.000000000000000
18.039997501451740 -7.518921743546213 -0.550148397671903 2.000000000000000
18.076105893766933 -7.490118059932569 -0.610734123898359 71.000000000000000
18.054131431621943 -7.510817505693220 -0.668478159387735 10.000000000000000
18.053523906554673 -7.541725139878151 -0.728703598511211 3.000000000000000
18.060315199766016 -7.499439699402014 -0.784708910256180 28.000000000000000
18.055871340119726 -7.528179159986359 -0.845789848260424 2.000000000000000
18.069412952955137 -7.526894111961439 -0.903622042461598 10.000000000000000
18.372874517376154 -7.620686750901259 -0.986286310327015 9.000000000000000
17.656612382479921 -7.352653633863659 -1.045235853668608 9.000000000000000
17.344487630481087 -7.238036473384851 -1.073986996087955 8.000000000000000
16.712928431855801 -6.966585027350724 -1.125473965897522 9.000000000000000
16.408740261982295 -6.853145257330632 -1.151683502931379 9.000000000000000
16.210803924738457 -6.719815764161062 -1.181207102041210 9.000000000000000
15.942833048883376 -6.622971851768032 -1.207759741145566 9.000000000000000
15.480325548711093 -6.460475018334128 -1.261657100713342 10.000000000000000
15.153996042488544 -6.300805410644380 -1.271271239651658 9.000000000000000
14.754186339003079 -6.138546171779923 -1.274961654243206 6.000000000000000
14.531310202136014 -6.058613778297971 -1.295536647605123 7.000000000000000
12.881295800554929 -5.384711906326991 -1.349058301883787 8.000000000000000
11.601858354933027 -4.815547919307769 -1.394456847647656 9.000000000000000
9.364448128435622 -3.887022575734528 -1.379121358157116 8.000000000000000
8.356724614190442 -3.487917856243357 -1.378805943921237 9.000000000000000
7.692126400480265 -3.211319148179846 -1.387808250956573 12.000000000000000
7.195189067702857 -2.980954867080649 -1.411467423569574 11.000000000000000
6.750789529473817 -2.804597671520455 -1.433799631250984 11.000000000000000
5.185605820217477 -2.168542126970632 -1.568020439732676 12.000000000000000
3.992345350244701 -1.660346514035216 -1.689517585033870 13.000000000000000
32.122779240495859 -13.513881679546140 2.159073643898463 0.000000000000000
59.108944192495713 -24.790036186235277 2.403456687536755 2.000000000000000
58.813342166451683 -24.761463203071362 2.205767040225824 1.000000000000000
59.443480145280070 -24.888386057152992 2.029993028211448 2.000000000000000
32.283921794309883 -13.565809036534992 0.917581428604014 0.000000000000000
59.213344743477919 -24.963545347653390 1.455503100522832 1.000000000000000
22.906335680442403 -9.593723380322757 0.501149389286635 1.000000000000000
22.775129499189859 -9.572799232215930 0.427449707647374 0.000000000000000
22.716577546794973 -9.584716968582045 0.353570081113209 0.000000000000000
22.770225652996867 -9.552622492102010 0.280456362883224 19.000000000000000
18.219880569813839 -7.644376630101816 0.087309296692083 2.000000000000000
18.181424489163597 -7.657644270114707 0.028839477193789 2.000000000000000
18.161198610347199 -7.602796819624893 -0.029179357585452 7.000000000000000
18.126118102439165 -7.617548524288252 -0.087046399213323 5.000000000000000
18.098092933435030 -7.635494715983360 -0.146420570481763 10.000000000000000
18.080859663003746 -7.619884882603855 -0.203335359347655 40.000000000000000
18.081850305782673 -7.574713769974985 -0.261838813567153 16.000000000000000
18.049815674313383 -7.590741450481210 -0.319689348158512 18.000000000000000
18.018017182962492 -7.561696849507757 -0.434555860302320 22.000000000000000
18.018097512079549 -7.592566956745022 -0.494900779230801 24.000000000000000
18.238939336632107 -7.687921889985656 -0.564629673132347 8.000000000000000
18.086905405026709 -7.571443078481644 -0.614221739839585 2.000000000000000
18.292917456106593 -7.698198035053483 -0.687064833845153 4.000000000000000
18.023974376864125 -7.558878600187137 -0.785188637858131 2.000000000000000
17.964250815388553 -7.554361130510904 -0.898650090146689 0.000000000000000
18.491747922973257 -7.753298460389443 -0.999455290407859 9.000000000000000
17.628012358628357 -7.414045539499813 -1.046215100851274 9.000000000000000
17.309068038266524 -7.294958927960111 -1.074286014532757 9.000000000000000
17.054184501821684 -7.132510613692926 -1.105842664948760 9.000000000000000
16.692889033820048 -7.028072071404782 -1.127110508890127 10.000000000000000
16.374678401448907 -6.906788795184818 -1.151859781790885 8.000000000000000
16.188019283908851 -6.777855073565698 -1.182484231885861 9.000000000000000
15.909576832271938 -6.674997198896589 -1.207863289074154 9.000000000000000
15.436865031665413 -6.505757571145881 -1.260446736625719 9.000000000000000
15.132663655531777 -6.355170733102424 -1.272536438416529 9.000000000000000
14.729828090506903 -6.189814963966120 -1.275779730410117 7.000000000000000
14.500056215159004 -6.105682973686400 -1.295445708884589 7.000000000000000
11.582130566526562 -4.855822209988805 -1.395099828744943 9.000000000000000
9.351487129669318 -3.921270759577176 -1.380353850495968 9.000000000000000
8.327731240244868 -3.509650384461715 -1.376096826939081 9.000000000000000
7.688387125352682 -3.243425594183957 -1.390813811916353 12.000000000000000
7.188761748096941 -3.009513591708100 -1.413717576525706 11.000000000000000
6.738107375615391 -2.827952843405373 -1.434173221857405 12.000000000000000
3.986723387900799 -1.675997241637670 -1.691451494943566 13.000000000000000
0.487151049797437 -0.207523661383230 0.120441652108842 0.000000000000000
32.123773166556241 -13.648689340579566 2.159914091055081 0.000000000000000
58.495548135977138 -24.766964376371824 2.383386990848109 2.000000000000000
32.144497355047079 -13.664151021041310 1.122142992240864 0.000000000000000
58.855140951944158 -24.877988493742109 2.013948687812944 1.000000000000000
62.157438483122647 -26.398900765282672 1.699044482333759 4.000000000000000
32.137417399883013 -13.690002937074484 0.811486646183912 0.000000000000000
22.848148220526163 -9.663427161183868 0.499888511044148 1.000000000000000
22.742463407905539 -9.653716937590138 0.426172529347681 0.000000000000000
22.723810123295756 -9.683880715986875 0.352005183797334 19.000000000000000
22.723084331779333 -9.626843157599533 0.279304151784053 253.000000000000000
18.457009807135599 -7.800981338726434 0.141054615521773 0.000000000000000
18.219294240435648 -7.721301348963703 0.085621295158883 1.000000000000000
18.151815280212144 -7.720868046578214 0.027830922642484 1.000000000000000
18.135400491698547 -7.667643390667811 -0.030294987944711 7.000000000000000
18.096643537977364 -7.680579138045234 -0.088051829179667 4.000000000000000
18.068553020651734 -7.698427409337451 -0.147424475218750 9.000000000000000
18.047752242063073 -7.681055641637608 -0.204194760568965 35.000000000000000
18.045274330069940 -7.634202016526919 -0.262530806281356 27.000000000000000
18.016804221026813 -7.651806767366969 -0.320523283849886 30.000000000000000
18.024689397253404 -7.610293698787882 -0.378469800963460 14.000000000000000
18.010424797660193 -7.634526070118954 -0.436699803799761 13.000000000000000
17.999532859863127 -7.660322662070961 -0.496508508651930 21.000000000000000
17.992309410025335 -7.649377752640373 -0.552790638539996 30.000000000000000
18.281855122578662 -7.739217423172292 -0.629244436998978 6.000000000000000
18.028175728046051 -7.651541477189657 -0.672619890967345 11.000000000000000
18.400497175528432 -7.780121105194057 -0.755660093499472 10.000000000000000
18.479000913912088 -7.848470326334762 -0.821181981973932 12.000000000000000
20.016146810003644 -8.518010766220778 -0.996983894238209 12.000000000000000
18.468974007961272 -7.820980357157250 -1.001074119871362 9.000000000000000
17.581160949493956 -7.466846263939814 -1.045592065773492 10.000000000000000
17.287878608170292 -7.358543854807465 -1.075909407453617 8.000000000000000
17.026353883788886 -7.191801110187973 -1.106788481163652 9.000000000000000
16.640218388501509 -7.074160801993019 -1.125551235050865 9.000000000000000
16.333247131412293 -6.956866972645114 -1.151299753515062 9.000000000000000
16.139827998352040 -6.823909204012097 -1.181111508065529 10.000000000000000
15.868958585795456 -6.723466596421146 -1.207183804385559 9.000000000000000
15.407633926045621 -6.557690531605968 -1.260888866740595 10.000000000000000
15.096780404773591 -6.402615378782943 -1.272100304877885 9.000000000000000
14.712461371284263 -6.244436600852332 -1.277470822751219 7.000000000000000
14.450741975148890 -6.143999737836419 -1.293110123508026 6.000000000000000
12.856007829056006 -5.427716864027749 -1.349254244012931 8.000000000000000
11.558714259198643 -4.894276220015916 -1.395154386686684 9.000000000000000
9.348916615606603 -3.960854091479624 -1.383727759171062 9.000000000000000
8.309108441894530 -3.536687196541727 -1.375764901831324 8.000000000000000
7.674170081438479 -3.270050465519619 -1.391239556204017 12.000000000000000
7.171933430136220 -3.032557360861833 -1.413189388988854 12.000000000000000
6.721940899286188 -2.849409411467009 -1.433554847887578 11.000000000000000
5.181675639789701 -2.190225605557796 -1.570955169285120 13.000000000000000
3.974924717821622 -1.687784332100567 -1.689957945009588 12.000000000000000
32.138767829024509 -13.790287574419219 2.161500132416736 1.000000000000000
32.258714288644427 -13.834799336315271 1.541842793474881 0.000000000000000
57.781951852125381 -24.793611681422806 2.174685597033396 2.000000000000000
58.413981305383246 -24.928290967055290 2.001704495104694 1.000000000000000
57.810945166383647 -24.759747198165549 1.802832084690384 1.000000000000000
58.254089355708189 -24.932770322283101 1.622811836080909 1.000000000000000
58.129212324723859 -24.975339383040545 1.434563169501976 1.000000000000000
22.767970425400460 -9.722775153233629 0.498643192190597 1.000000000000000
22.705881129669283 -9.732848395261447 0.424910494609811 0.000000000000000
22.661185780303949 -9.694132827614670 0.278304002753696 255.000000000000000
18.604206225042695 -7.948635772376776 0.136457500037610 2.000000000000000
18.254549743306345 -7.815409041637106 0.083082887534992 0.000000000000000
18.190635384465786 -7.816542949594862 0.024987021844472 1.000000000000000
18.098520928536129 -7.727294729003117 -0.031084036807190 6.000000000000000
18.066949076632373 -7.743506623593839 -0.089055745609310 5.000000000000000
18.021659706086258 -7.745526663832744 -0.205339863971854 27.000000000000000
18.008502763786545 -7.693536993960057 -0.263220491132697 31.000000000000000
17.994420143610807 -7.717878345233411 -0.321857782694332 34.000000000000000
18.009682602837671 -7.679785149394259 -0.380186583315696 25.000000000000000
17.998930754319677 -7.705695517872137 -0.438653700287289 19.000000000000000
17.984322520560166 -7.729764446578685 -0.498318900179232 31.000000000000000
17.966306238373118 -7.713652534557965 -0.554003219693975 25.000000000000000
18.006329014168866 -7.686901252926350 -0.614868789350535 16.000000000000000
18.009376276795685 -7.719356215598977 -0.674334158342048 9.000000000000000
18.038153533485271 -7.687591141023547 -0.733702003400706 8.000000000000000
18.019268110206859 -7.709712786306864 -0.791106803087501 5.000000000000000
20.012358924953798 -8.601216167450511 -1.000280683994081 11.000000000000000
19.101349059344184 -8.164845763365928 -0.991600038177396 12.000000000000000
18.431520202111233 -7.881802136452208 -1.001505243847255 9.000000000000000
18.051162645862618 -7.733523560028567 -1.029650707554249 9.000000000000000
17.259258865561950 -7.418648693512567 -1.076868433048048 8.000000000000000
16.991114666812042 -7.247579117992268 -1.107045326775729 9.000000000000000
16.612590942802282 -7.132006862029922 -1.126474321579968 9.000000000000000
16.302438757952160 -7.011919232517905 -1.151838531644688 9.000000000000000
16.116668488402727 -6.881725286766631 -1.182385322828469 9.000000000000000
15.828195429816297 -6.771743858421286 -1.206501371783671 9.000000000000000
15.374644448245723 -6.607779857072696 -1.260915132327032 9.000000000000000
15.060749858159440 -6.449896954465401 -1.271661684784306 10.000000000000000
14.691312741814425 -6.297290705102059 -1.278724121963892 7.000000000000000
14.408487975161936 -6.185529004915087 -1.291667945647021 7.000000000000000
12.830575962088446 -5.470620857174779 -1.349448673596760 8.000000000000000
11.538711845013896 -4.934399449994944 -1.395795135083735 10.000000000000000
9.325187739070552 -3.989666974053645 -1.382817457678833 8.000000000000000
8.293864930083517 -3.565476893221524 -1.376225174733201 9.000000000000000
7.161877165626504 -3.059231837128210 -1.414512786875477 12.000000000000000
6.712498744460484 -2.874529689268969 -1.434918430626909 11.000000000000000
5.161364374181103 -2.202392401169296 -1.567269082860589 15.000000000000000
3.969193361327053 -1.703395430130021 -1.691891288167610 13.000000000000000
32.160428420072250 -13.935496082017334 2.163455425341824 0.000000000000000
57.432126782138262 -24.780521012761763 2.348583523682215 2.000000000000000
57.192338642453983 -24.771289855192155 2.157066484140670 1.000000000000000
61.192214839612660 -26.407504886145396 2.071702084137211 3.000000000000000
57.232165063701636 -24.742725915057633 1.788683094244926 1.000000000000000
57.743990545103614 -24.948394804478195 1.611559941030054 1.000000000000000
57.524289895475732 -24.947433394086136 1.423160935255639 1.000000000000000
22.702154505304566 -9.788459118575810 0.497396269244839 1.000000000000000
22.632801759335649 -9.794880544577564 0.423789243881928 0.000000000000000
22.639986426195712 -9.740982774859425 0.351076545361395 0.000000000000000
22.628078613423380 -9.774674665279624 0.277008939681404 17.000000000000000
18.696406906924128 -8.071680299402127 0.132939052925233 1.000000000000000
18.397662917428697 -7.961497805780751 0.077986642595743 1.000000000000000
18.203756980355589 -7.900510064690108 0.022815157743514 2.000000000000000
18.075886999989951 -7.793665360778888 -0.032305539901211 6.000000000000000
18.051465904093501 -7.813223498642184 -0.090539858117291 4.000000000000000
18.056848328107172 -7.769834951501966 -0.149088077719112 9.000000000000000
17.991731067156479 -7.808191887437513 -0.206339835799801 26.000000000000000
17.989577846124440 -7.761314134889194 -0.264687311662618 27.000000000000000
17.989820833784417 -7.792516994316468 -0.324030024392774 22.000000000000000
17.987192177229858 -7.745841321630763 -0.381544606778482 23.000000000000000
17.976341285639634 -7.771723650641694 -0.440034617149668 22.000000000000000
17.961640316093295 -7.795750942924347 -0.499723051895925 32.000000000000000
17.950880926413102 -7.783022683865006 -0.555858431202335 26.000000000000000
17.987400146232403 -7.754663071410477 -0.616547373966380 13.000000000000000
17.983116771502694 -7.783699440896900 -0.675571625658939 9.000000000000000
18.012004752137003 -7.752027024301730 -0.734952711314937 5.000000000000000
18.003843832607039 -7.779243169827410 -0.793152717984654 3.000000000000000
19.954152473884772 -8.658847372469150 -0.999476819918438 12.000000000000000
19.116774556786382 -8.253495564124499 -0.996363444595444 11.000000000000000
18.365050415044827 -7.928756160944962 -0.999558463664177 9.000000000000000
18.010434985042981 -7.791134390545566 -1.029726503000307 9.000000000000000
17.219652872913130 -7.473469311055180 -1.076829819589926 8.000000000000000
16.962882681579877 -7.306648786698094 -1.107987879309313 8.000000000000000
16.581173192439287 -7.188025134556146 -1.127040566160364 9.000000000000000
16.082538016253398 -6.934289672578144 -1.182521724199052 9.000000000000000
15.790872422646689 -6.821560715074066 -1.206206835734345 9.000000000000000
15.334338094527004 -6.654246243683911 -1.260110575232141 9.000000000000000
15.020996029764406 -6.495275395879021 -1.270795058084140 10.000000000000000
14.648535180548537 -6.339618611970210 -1.277351365676141 6.000000000000000
14.366119858229446 -6.226848206520772 -1.290222526115503 7.000000000000000
12.794332068095949 -5.508154397937407 -1.348085928944886 8.000000000000000
11.515033817324706 -4.972676721618534 -1.395847050269514 9.000000000000000
9.315342279701476 -4.025628014203067 -1.384762904881814 9.000000000000000
8.268138884137645 -3.588686348450594 -1.374303982129892 9.000000000000000
7.656417869166938 -3.294778881628075 -1.390804289635850 12.000000000000000
7.148304806177605 -3.084020282532231 -1.414909348211445 12.000000000000000
6.709741664274391 -2.903384505709873 -1.438265102782541 11.000000000000000
5.160540903029463 -2.225953043868373 -1.571527650518895 16.000000000000000
3.960356658294138 -1.717048340607380 -1.692110499484692 12.000000000000000
32.108940067838105 -14.047475432661740 2.161669767352838 1.000000000000000
53.028846195491155 -23.040563496352295 2.207232272303760 1.000000000000000
56.698344527302716 -24.787943648026424 2.142237060760360 1.000000000000000
57.277410856322192 -24.905957153449389 1.970830102264566 2.000000000000000
56.810992839067239 -24.792628524653786 1.778094522952877 1.000000000000000
53.027777770574424 -23.156461304747342 1.350123845320947 0.000000000000000
32.253682539753804 -14.013837102653927 0.809949628520191 0.000000000000000
22.686817146232919 -9.877677038291004 0.496122498893384 1.000000000000000
22.602959565998038 -9.877047837730041 0.422504796596415 0.000000000000000
22.642912641974963 -9.838479769399774 0.349536511982244 1.000000000000000
22.667027446933695 -9.889258815246000 0.274962306250476 5.000000000000000
22.633196915575780 -9.912249934855087 0.201364074605282 15.000000000000000
18.525560302934739 -8.101754840746164 0.073213749766485 3.000000000000000
18.063822629080789 -7.865174892665257 -0.033852997213116 5.000000000000000
18.017706889162330 -7.874256560542379 -0.091420891287066 4.000000000000000
18.019629696158333 -7.829166354743241 -0.149825061746126 8.000000000000000
17.984807448184579 -7.835989751616724 -0.266778177320213 28.000000000000000
17.974120280242371 -7.862017049656478 -0.325699872296667 23.000000000000000
17.978869367341229 -7.818759803451046 -0.383620431241466 22.000000000000000
17.946310073297667 -7.834230046576734 -0.441032090833624 20.000000000000000
17.935189241899060 -7.852388824895311 -0.557713715871819 22.000000000000000
17.979015733451224 -7.827584377512137 -0.618905805954411 11.000000000000000
17.967416595623785 -7.853165599951003 -0.677523296674198 9.000000000000000
17.989224679071746 -7.818110337929533 -0.736452463862784 5.000000000000000
18.016924370570678 -7.862618923045666 -0.797292695044972 3.000000000000000
19.884989266826054 -8.711017107800402 -0.997847417359560 12.000000000000000
19.059828724622680 -8.307925667712636 -0.995428713283085 11.000000000000000
18.334437001162435 -7.992617284682566 -1.000577557770351 8.000000000000000
17.965931837173386 -7.846833772879790 -1.029490784428141 9.000000000000000
17.176287852232097 -7.526373269572606 -1.076456270446569 9.000000000000000
16.927266960035926 -7.362154382407818 -1.108240638179925 8.000000000000000
16.538818904844415 -7.238690326893131 -1.126538109765209 9.000000000000000
16.267859346061016 -7.065115529152513 -1.152008049085439 9.000000000000000
16.044654745566728 -6.984969575286634 -1.182276925460194 9.000000000000000
15.760550269502682 -6.874698979500535 -1.206691836243416 8.000000000000000
15.293894301955948 -6.700521732486384 -1.259303091550382 10.000000000000000
14.988249680687183 -6.543969098119004 -1.270776955346756 10.000000000000000
14.612774720528510 -6.385247851924008 -1.276850797803113 7.000000000000000
14.323638575626793 -6.267957052634833 -1.288773859873618 7.000000000000000
12.779282129742592 -5.556124030087057 -1.349832964164889 8.000000000000000
11.491228552450723 -5.010858834418748 -1.395897533986568 9.000000000000000
9.305358443996370 -4.061578827158366 -1.386708262103478 9.000000000000000
8.225080553420392 -3.602498256291144 -1.368412071888738 12.000000000000000
7.652328999645411 -3.326868403339201 -1.393809763358219 12.000000000000000
7.141465642385860 -3.112510433161623 -1.417158630167901 12.000000000000000
6.696714579894192 -2.926595676631170 -1.438636611512541 10.000000000000000
5.153124905110191 -2.245689008235559 -1.573137630435672 15.000000000000000
3.948435357444492 -1.728711259663726 -1.690615061437190 13.000000000000000
32.143950948118160 -14.199846524884640 2.164364475094217 0.000000000000000
56.223127136580430 -24.809752267422688 2.127981076578258 3.000000000000000
56.266401139746385 -24.783608195716294 1.764785702227156 2.000000000000000
56.583620214723574 -24.905380226580419 1.586507077402988 2.000000000000000
56.466381848943321 -24.947963244406495 1.402902066485846 2.000000000000000
22.790348580119996 -10.023587124074302 0.494766254142893 1.000000000000000
22.673903329426558 -10.007361563814301 0.420821212970867 0.000000000000000
22.623750656661816 -9.925836443470885 0.348149775803578 0.000000000000000
22.607948879300942 -9.957805711973466 0.273931162701100 3.000000000000000
18.548366377162470 -8.192370275173548 0.070903477242475 3.000000000000000
18.212911561450202 -7.982934689028305 0.020737098581223 3.000000000000000
18.037084933550734 -7.929730402366633 -0.034964535613290 3.000000000000000
17.994527793726665 -7.940404346105860 -0.092662467983212 4.000000000000000
18.000210643605627 -7.897046502616306 -0.151222922616045 8.000000000000000
17.983178254187720 -7.881189278086738 -0.208203539622575 23.000000000000000
17.954560247038824 -7.898525674399197 -0.267776266832213 27.000000000000000
17.950966099725409 -7.928013802760010 -0.327033589406547 19.000000000000000
17.963062601063047 -7.888241063359398 -0.385337462485954 18.000000000000000
17.930434931954306 -7.903616733234293 -0.442794259340306 20.000000000000000
17.935119071924948 -7.859944376737779 -0.500923108772589 30.000000000000000
17.919231024535364 -7.921749942229342 -0.559569057857506 19.000000000000000
17.955965821038372 -7.893583417335556 -0.620357409898466 9.000000000000000
17.955040120227508 -7.924373558786331 -0.679713664307229 9.000000000000000
17.973388863364981 -7.887616810232845 -0.738452223250767 4.000000000000000
18.040411772351636 -7.951421455555742 -0.802221777681317 4.000000000000000
19.006328738478977 -8.363803204742242 -0.994774836807089 12.000000000000000
18.278471539835174 -8.044197907014585 -0.999513669831791 9.000000000000000
17.932018804836765 -7.907558612809606 -1.030178860058839 9.000000000000000
16.887887117487786 -7.415765244752536 -1.108146764886310 10.000000000000000
16.507041390364776 -7.294425466051222 -1.127100090217429 9.000000000000000
16.229527654216842 -7.116417602200465 -1.151807700898633 8.000000000000000
16.013764220238176 -7.038984759401659 -1.182787964848035 9.000000000000000
15.722904922973127 -6.924204188677643 -1.206392569233092 8.000000000000000
14.951781459825495 -6.590758861663114 -1.270330828954662 10.000000000000000
14.576873742754000 -6.430714690196679 -1.276347750500920 6.000000000000000
14.281045080135273 -6.308855257676016 -1.287321941915571 8.000000000000000
12.753420962874449 -5.598722254372730 -1.350022809709866 8.000000000000000
11.474342582988063 -5.052546354003938 -1.397122976451094 9.000000000000000
9.288276271086520 -4.093842441522255 -1.387224047964237 9.000000000000000
7.634391472321007 -3.351496262578537 -1.393373011695804 12.000000000000000
7.127707238143158 -3.137227312390248 -1.417554162216625 12.000000000000000
6.683606513540812 -2.949761371404874 -1.439007443019075 10.000000000000000
5.139157081533197 -2.261531999334799 -1.572097928866559 14.000000000000000
32.127685032269177 -14.328798075841515 2.164442981936873 0.000000000000000
55.918424393292298 -24.810371740803916 2.299224910719832 2.000000000000000
55.752083734431054 -24.830227664516528 2.113877134408986 2.000000000000000
56.264045222623537 -24.923914914813359 1.943245464219906 3.000000000000000
55.733471613065220 -24.776105540181252 1.751775128146825 1.000000000000000
56.082879067444765 -24.914121576834450 1.575554988676191 3.000000000000000
55.998427056884552 -24.970761617584404 1.393799216458060 1.000000000000000
23.019366075294379 -10.230894910683091 0.493302283405326 1.000000000000000
22.974875113386492 -10.249336102800759 0.418199823030734 0.000000000000000
22.813499552648754 -10.113377962351937 0.345244851475085 0.000000000000000
23.049781654393808 -10.266887102662853 0.267614771375231 0.000000000000000
22.801393291744475 -10.089318458923035 0.197276844452256 0.000000000000000
18.581538794424198 -8.288529081847246 0.068331776475688 2.000000000000000
22.975032101316238 -10.202467852395060 0.044279119725783 1.000000000000000
18.020892547454039 -7.999473134022691 -0.036402803701898 3.000000000000000
17.985463383986570 -8.013540034852403 -0.094387408584585 3.000000000000000
17.976943595021503 -7.963142772066451 -0.152487588914022 8.000000000000000
17.959962077381316 -7.947223468331146 -0.209490453440490 25.000000000000000
17.956405760233160 -7.976767623215948 -0.270181236459075 255.000000000000000
17.938330917077352 -7.999239615441640 -0.328871425062738 255.000000000000000
17.943398487676269 -7.955962802698760 -0.386874513404400 15.000000000000000
17.907118254769795 -7.969479905829377 -0.444172956660226 21.000000000000000
17.911958281895149 -7.925808601566431 -0.502325582417154 24.000000000000000
17.950610842198536 -7.968299035085696 -0.622943881942135 7.000000000000000
17.945968787207857 -7.997359731603487 -0.682143316190525 7.000000000000000
17.957285985427745 -7.957117710222174 -0.740452031638315 3.000000000000000
18.027654351898203 -8.022930876603047 -0.804533810114710 2.000000000000000
19.862417749411037 -8.785385949017588 -0.999772753473656 11.000000000000000
18.977779855172386 -8.431646811803262 -0.996115332096378 11.000000000000000
18.236704304667185 -8.102501352229879 -0.999635582875234 9.000000000000000
17.897900086746866 -7.968152211186806 -1.030864979131715 8.000000000000000
17.143502891626497 -7.584334592645762 -1.077077004397315 8.000000000000000
16.866221803280801 -7.477988796692723 -1.109773085303667 10.000000000000000
16.475075648874164 -7.350036971082799 -1.127660220722431 9.000000000000000
16.198181209826306 -7.171069385627331 -1.152340462708821 9.000000000000000
15.975552701259184 -7.089349118457661 -1.182538376887074 9.000000000000000
15.688671347141250 -6.975310008071553 -1.206482171811025 9.000000000000000
15.249749014070906 -6.744839775197008 -1.258077926364404 10.000000000000000
14.904494135561807 -6.632052790536795 -1.268603862223437 9.000000000000000
14.533723875191082 -6.472455938975825 -1.274965962823979 7.000000000000000
14.248992984463932 -6.354899984676222 -1.287215317370682 7.000000000000000
12.727417498883362 -5.641217645456719 -1.350211110806038 8.000000000000000
11.457304777425263 -5.094186967633622 -1.398347759620336 10.000000000000000
9.267608045237555 -4.124195753853385 -1.387024023715338 9.000000000000000
8.216503479577213 -3.634727002100719 -1.370455739659901 17.000000000000000
7.626642502942054 -3.381697625536092 -1.395517672888183 11.000000000000000
7.117259159942366 -3.163794256331268 -1.418876075181775 11.000000000000000
6.673787300990520 -2.974794461302981 -1.440369848656526 10.000000000000000
5.138065576641806 -2.285116568131222 -1.576357009205700 13.000000000000000
3.942540435154918 -1.744261484430845 -1.692547531739528 13.000000000000000
32.089258291528218 -14.447523703113255 2.163403133914536 1.000000000000000
32.183125129866191 -14.482116093919734 1.538809236450568 2.000000000000000
55.172773683306879 -24.797227949234589 2.096688957783442 3.000000000000000
55.723826384590254 -24.912141015994749 1.928650875275110 2.000000000000000
55.208540715807501 -24.768558597183610 1.738980076572707 1.000000000000000
55.579140080617741 -24.918002515833059 1.564584284904005 2.000000000000000
55.393169607960651 -24.926570367100766 1.382570868372222 1.000000000000000
23.272413801374650 -10.452128695167444 0.491790356511211 1.000000000000000
32.220440282513344 -14.382023940264398 0.596131291362777 0.000000000000000
23.196699463258572 -10.396332099220158 0.340892324670368 1.000000000000000
23.360158760470775 -10.516358426728255 0.262624136621552 2.000000000000000
23.155960006600843 -10.358040532495941 0.190575722161864 1.000000000000000
23.380505969838875 -10.506894398529354 0.109344678096548 0.000000000000000
23.343352972542661 -10.479168570896444 0.034695077100074 2.000000000000000
17.997259967629578 -8.065671719278775 -0.037622110608196 2.000000000000000
17.972523321369202 -8.084945234467932 -0.095991942569225 3.000000000000000
17.967780086835578 -8.036246080833848 -0.154283667985063 10.000000000000000
17.940090001261133 -8.014965865446001 -0.210921217153347 255.000000000000000
17.889827764115132 -8.021509357422344 -0.269611086967347 255.000000000000000
17.914673140913944 -8.065160696599033 -0.330204210786367 255.000000000000000
17.930647978016633 -8.027186283043406 -0.388771662665993 10.000000000000000
17.890721863156219 -8.038829184502871 -0.445934801969539 19.000000000000000
17.902892936401045 -7.998671317349708 -0.504542352461024 17.000000000000000
17.903006119629850 -7.991105021407008 -0.561424441241799 12.000000000000000
17.927045140584909 -8.034248156935915 -0.624394965328205 8.000000000000000
17.933027316146838 -8.068617048687688 -0.684334747998434 4.000000000000000
17.980309619138684 -8.046016274407505 -0.745210359603309 3.000000000000000
18.046819283114861 -8.110376464681117 -0.809207391990324 1.000000000000000
19.796522036163392 -8.838732368430216 -0.998408611659067 12.000000000000000
18.923921799561853 -8.487087000072728 -0.995454767894208 10.000000000000000
18.201907518350215 -8.164149412147282 -1.000350189098046 9.000000000000000
17.852853125498019 -8.023307791949346 -1.030620989724504 9.000000000000000
17.103374241874363 -7.638637689257145 -1.077030526425315 9.000000000000000
16.837186106827058 -7.536621158849092 -1.110709179220108 9.000000000000000
16.163083687950685 -7.223825953947987 -1.152503337003179 9.000000000000000
15.933621047751444 -7.137764914338018 -1.181906571054117 9.000000000000000
15.650712414273523 -7.024489108780032 -1.206177940291171 9.000000000000000
15.432570828892276 -6.942495446619619 -1.232886179891975 9.000000000000000
14.860652474186583 -6.674896358042465 -1.267299490611606 10.000000000000000
14.497556484979135 -6.517571915472523 -1.274457539731425 6.000000000000000
14.213248300983453 -6.399009647346253 -1.286656902117026 7.000000000000000
12.701272137682375 -5.683609643264461 -1.350397861853077 8.000000000000000
11.440115257676601 -5.135780123757573 -1.399571874757045 9.000000000000000
9.250307466661353 -4.156327231957605 -1.387537845369861 9.000000000000000
8.211241751132924 -3.668828027730383 -1.373293513727099 22.000000000000000
7.608526836779107 -3.406211609279524 -1.395079223349008 11.000000000000000
7.103321745583585 -3.188426336761608 -1.419270366519164 11.000000000000000
6.660510983107042 -2.997879839977957 -1.440739504392678 11.000000000000000
5.123973745855213 -2.300884204493239 -1.575316187175645 13.000000000000000
3.933561125641017 -1.757821254897595 -1.692765348970341 13.000000000000000
54.840012235277449 -24.780429982097381 2.264252984203066 2.000000000000000
54.840614889512146 -24.875827036835076 2.086643593137055 1.000000000000000
32.199834956350600 -14.506518841244834 1.118373861455738 0.000000000000000
32.183381978827065 -14.554241902596189 1.013929701859765 0.000000000000000
55.054319298839097 -24.908526092161711 1.553252013619533 1.000000000000000
54.839605857826605 -24.902240832799119 1.372201861898099 1.000000000000000
23.545759878919355 -10.685791460327467 0.490229435806695 0.000000000000000
23.263634837561998 -10.488298540585429 0.415586755270811 2.000000000000000
23.664488833918519 -10.724152593869620 0.335857062220716 2.000000000000000
23.588045381506916 -10.667869366860785 0.182731436476792 2.000000000000000
18.625020492822745 -8.390342490540862 0.065496883191300 1.000000000000000
23.717204138873530 -10.762079478462484 0.024920279430444 1.000000000000000
18.002022898782698 -8.146061716800132 -0.039718193113760 1.000000000000000
18.005804572006127 -8.179585851282610 -0.099175476036693 2.000000000000000
18.012030656842843 -8.136068237909106 -0.158079219113412 8.000000000000000
17.941446776300584 -8.093338633459844 -0.213220468672739 255.000000000000000
17.909021600730618 -8.108659496492256 -0.272800761945021 255.000000000000000
17.906883781909087 -8.093089982859798 -0.390127938051034 4.000000000000000
17.884783595238993 -8.113522423611363 -0.448273138079774 8.000000000000000
17.907848884571916 -8.078681670702911 -0.507575797661583 8.000000000000000
17.900827338559168 -8.067552209928953 -0.564141376544120 7.000000000000000
17.928262862577686 -8.112596089696620 -0.627437923008772 6.000000000000000
17.980530289175142 -8.170222908124298 -0.690593703085301 2.000000000000000
18.017229876998307 -8.142288014306660 -0.750976973629737 7.000000000000000
18.019157165441488 -8.174907309670312 -0.810471848845684 1.000000000000000
19.755563217522898 -8.904062227829295 -0.998959111608093 12.000000000000000
18.852034028488205 -8.533404555456766 -0.993360714208887 11.000000000000000
18.149044704111173 -8.216780530005325 -0.999573077924305 9.000000000000000
17.818343184739458 -8.083599432471827 -1.031302565157009 8.000000000000000
17.084480710750206 -7.703430761192857 -1.078978472990532 8.000000000000000
16.800817431765129 -7.591586785428543 -1.110953840808570 9.000000000000000
16.450049946890129 -7.409085904595607 -1.128930939253683 9.000000000000000
16.120693839203152 -7.272863922488633 -1.151927457341631 9.000000000000000
15.895102579647801 -7.187774345968020 -1.181651564234287 9.000000000000000
15.601940834623788 -7.068114604926704 -1.204695587336680 9.000000000000000
15.398306053339907 -6.992529086017963 -1.232936420121780 9.000000000000000
14.823784369032850 -6.721128239868662 -1.266844807992245 10.000000000000000
14.464792728183596 -6.564330419166231 -1.274385139308930 6.000000000000000
14.177368843108923 -6.442957164379897 -1.286096010335366 7.000000000000000
12.682034972117350 -5.729534055333326 -1.351622130025824 9.000000000000000
11.415766272414825 -5.173650623983952 -1.399617742656787 9.000000000000000
9.219053182161266 -4.180899919377203 -1.385189503397963 9.000000000000000
8.205840982734294 -3.702946469459805 -1.376131632390825 22.000000000000000
7.603969532832723 -3.438276499204296 -1.398084553656559 12.000000000000000
7.089298387642775 -3.213009623089791 -1.419663935214071 11.000000000000000
5.122703215679720 -2.324482913155999 -1.579575584922152 14.000000000000000
3.924534497748533 -1.771349604720438 -1.692982696688116 13.000000000000000
0.283357346584345 -0.128807907794887 0.052945484420047 0.000000000000000
32.136854359821399 -14.607644542206819 2.166827644219042 0.000000000000000
54.446682676769612 -24.828419225714448 2.251480042844206 1.000000000000000
54.186826892993864 -24.800352033523261 2.067376337987445 2.000000000000000
32.149900796749534 -14.620360890758009 1.116653123571752 1.000000000000000
54.287491193644819 -24.803142334223036 1.716363611338621 2.000000000000000
54.609832764045429 -24.933218892227554 1.543479655729796 1.000000000000000
54.435121225445457 -24.944493504409568 1.364216122370043 2.000000000000000
32.301035448781242 -14.778749935516613 0.696431188918125 0.000000000000000
23.766517391207440 -10.835012527361814 0.412045484406799 0.000000000000000
54.702165925701507 -24.887736873917795 0.833178556838651 1.000000000000000
23.916983537202810 -10.889404469539596 0.254943209969797 2.000000000000000
23.982339301422886 -10.963221247121421 0.175339361810211 0.000000000000000
18.600011107086601 -8.458677713283496 0.064290608741643 1.000000000000000
18.396180743396165 -8.389439965726144 0.008285757469050 4.000000000000000
18.127945721051365 -8.287576639081051 -0.045553071839217 0.000000000000000
18.152304602884602 -8.284660752813076 -0.165484508015687 2.000000000000000
18.038982768190802 -8.220146470316408 -0.219437006581072 6.000000000000000
17.922166656075142 -8.178642811797033 -0.393470349301640 1.000000000000000
17.874971931864518 -8.186485376622386 -0.450420310956640 0.000000000000000
17.894603142562989 -8.149890306383021 -0.509590830595233 1.000000000000000
17.891187716557866 -8.140516564188680 -0.566428754837080 3.000000000000000
17.936288504670824 -8.194643920742800 -0.630938313907760 1.000000000000000
18.000162773354891 -8.212090259341155 -0.752982006704232 36.000000000000000
17.998394895959208 -8.242941000575271 -0.812260588853616 1.000000000000000
19.710814059130769 -8.967450361298267 -0.999232598184101 11.000000000000000
18.808601568195208 -8.593608624985059 -0.993549292343855 11.000000000000000
18.110296757961173 -8.276308033572610 -0.999984530784228 8.000000000000000
17.780067319232423 -8.141964216536559 -1.031672373606073 8.000000000000000
17.051096700912339 -7.761033191935050 -1.079593875331774 8.000000000000000
16.789175277897872 -7.658964914961281 -1.113612381008486 9.000000000000000
16.414139015964604 -7.462679472224175 -1.129131323628996 9.000000000000000
16.092374741483653 -7.328895461236924 -1.152822378896582 9.000000000000000
15.867080561614866 -7.243019012712229 -1.182533958473578 8.000000000000000
15.584978418034643 -7.127757412475162 -1.206737816839695 8.000000000000000
15.363879465974845 -7.042418075576560 -1.232984470712798 9.000000000000000
14.772616781868914 -6.759937588008980 -1.264680780379838 9.000000000000000
14.410664934377497 -6.600038458803117 -1.271678312012385 7.000000000000000
12.645038898152949 -5.766251288915305 -1.350246946040321 8.000000000000000
11.387794215650180 -5.209574153634443 -1.399073163703791 9.000000000000000
9.201555019067468 -4.212861591200341 -1.385700758405134 9.000000000000000
8.193445387106348 -3.733277081351194 -1.377381044728995 18.000000000000000
7.589072288103690 -3.464605674043151 -1.398505995908633 11.000000000000000
7.078565614619292 -3.239477635584920 -1.420984435180067 11.000000000000000
6.647154118073916 -3.020918741952774 -1.441108471096774 12.000000000000000
5.108487750554009 -2.340174234819498 -1.578533627124425 14.000000000000000
3.915460660117907 -1.784846367891086 -1.693199572286363 13.000000000000000
32.151353699801582 -14.752614219718938 2.168571738503442 0.000000000000000
54.256001996104757 -24.926374185460908 1.888962172531780 2.000000000000000
32.169908758162720 -14.879954954732112 0.904768987894571 0.000000000000000
32.257082741065226 -14.840290751759788 0.802145710314369 0.000000000000000
24.922944010909088 -11.465903072374056 0.487623700840694 5.000000000000000
24.848149617209785 -11.472529736664695 0.406000386024947 1.000000000000000
26.017388267842399 -12.029404384923133 0.230537449777141 0.000000000000000
18.631918004354507 -8.555690426607230 0.061704852750344 0.000000000000000
24.638339705928793 -11.317985288014230 0.003790931398912 18.000000000000000
18.413626783071120 -8.511353234073667 -0.056358049755122 0.000000000000000
18.231465008281653 -8.371686566435560 -0.108932551739034 1.000000000000000
18.225052584962040 -8.392793645942502 -0.229296509005115 3.000000000000000
18.398340136070747 -8.464908784399453 -0.358032060690622 3.000000000000000
18.175956819648761 -8.385281263830400 -0.408931867618140 3.000000000000000
17.959701998192383 -8.253115034785921 -0.573464089004592 0.000000000000000
18.040148681424284 -8.325575214042054 -0.640595312109098 1.000000000000000
18.120249867955593 -8.318981565351036 -0.703085276355789 1.000000000000000
18.036264984603303 -8.308903577309856 -0.758757546626709 6.000000000000000
19.640882034198764 -9.018143479328954 -0.997580392952661 12.000000000000000
18.768540233103909 -8.655420215056484 -0.994021278411549 10.000000000000000
18.057118116069589 -8.328469415919518 -0.999200201623862 9.000000000000000
17.723822585225292 -8.191140154933505 -1.030489902816332 9.000000000000000
17.028183382095921 -7.823914808919626 -1.081207101241141 9.000000000000000
16.734646557689331 -7.704675788430089 -1.112126992628521 9.000000000000000
16.374502464196510 -7.514316798905793 -1.128972814996791 9.000000000000000
16.060312347593463 -7.383017556462938 -1.153347185354772 9.000000000000000
15.831777206218629 -7.294535973756136 -1.182654499192852 10.000000000000000
15.525300611074723 -7.165546486870336 -1.204072945545026 9.000000000000000
15.114421916162602 -6.941733173505657 -1.258130303144166 10.000000000000000
14.735490604801463 -6.805787582677613 -1.264220230140346 9.000000000000000
14.374110221293988 -6.644613012053541 -1.271161581248529 7.000000000000000
14.137823389494640 -6.484919283037879 -1.285082525331007 8.000000000000000
12.621988731307109 -5.810160815419723 -1.350948732439536 8.000000000000000
11.370182841021498 -5.250960523233212 -1.400294250891827 9.000000000000000
9.166709582301788 -4.235268697015524 -1.382632594023920 9.000000000000000
8.184358288556027 -3.765490360362099 -1.379424734473654 20.000000000000000
7.577478981410331 -3.492813023004035 -1.399788275729545 12.000000000000000
7.067733598261512 -3.265919795957442 -1.422304579733700 11.000000000000000
6.640415472646357 -3.047807801224545 -1.443462377698150 11.000000000000000
3.906339725959528 -1.798311424068672 -1.693415972558112 13.000000000000000
32.143688901582820 -14.887351493270540 2.169197586662472 0.000000000000000
53.387031267219065 -24.785732053954025 2.217280680284508 2.000000000000000
53.239587873972042 -24.808313440872467 2.039297152704159 3.000000000000000
53.238902789195514 -24.763790471141188 1.691049869386018 3.000000000000000
53.429106648510874 -24.926011790059480 1.345263822056358 1.000000000000000
24.829877018547155 -11.527713140306973 0.486287823925787 7.000000000000000
24.801625500931248 -11.557214272352304 0.404635112322826 0.000000000000000
24.723005993096621 -11.453972844833805 0.324652330283598 0.000000000000000
24.690632285412502 -11.481761162681607 0.243001978271124 5.000000000000000
24.578918473123604 -11.405609008077452 0.082462129176872 0.000000000000000
24.560094183189271 -11.385934371385472 0.003163363312887 16.000000000000000
18.513096644921298 -8.570970225149422 -0.304201080758725 1.000000000000000
18.764858306854084 -8.731788161218621 -0.377991839236885 0.000000000000000
18.335978851195733 -8.546570458366077 -0.419716820054238 0.000000000000000
18.297956586192516 -8.511792772727395 -0.538373760274286 0.000000000000000
18.276805436042864 -8.493149688079244 -0.595627454606567 1.000000000000000
18.316097219618108 -8.497769592664945 -0.719428524255172 0.000000000000000
19.599335276350303 -9.082854239005988 -0.998121468199504 11.000000000000000
18.699828537589021 -8.702592944281120 -0.992198917167484 11.000000000000000
18.003795703251217 -8.380370418983853 -0.998411855450786 9.000000000000000
