# This PCD file was generated using the MATLAB® pcwrite function
# from Computer Vision Toolbox®.
# .PCD v.7 - Point Cloud Data file format
VERSION .7
FIELDS x y z intensity
SIZE 8 8 8 8
TYPE F F F F
COUNT 1 1 1 1
WIDTH 640
HEIGHT 1
VIEWPOINT 0 0 0 1 0 0 0
POINTS 640
DATA ascii
14.348256084529169 4.553820572770185 -0.649358643304285 1.000000000000000
14.381228215677616 4.536292185530638 -0.696888745752119 3.000000000000000
14.308194118694759 4.542646810272462 -0.734000682106330 6.000000000000000
18.417771315347366 5.828686603926812 -0.980135389610090 33.000000000000000
13.820888525749931 4.354226280829490 -0.775224164458919 15.000000000000000
13.755488607075511 4.361382748604651 -0.813089452934423 19.000000000000000
13.782653213742142 4.348318835395169 -0.855614418906602 21.000000000000000
13.755484890720142 4.366124277353194 -0.896456008093489 22.000000000000000
13.779987385298535 4.347216642674592 -0.939713046417655 20.000000000000000
13.775442152425688 4.349634745202899 -1.191792111556039 22.000000000000000
13.358170125466486 4.237747306829259 -1.384577999462409 7.000000000000000
12.085434922098521 3.843456563669907 -1.425689819172603 7.000000000000000
10.176112686983684 3.214048462265300 -1.488112387336170 9.000000000000000
9.793933547101238 3.080235498827431 -1.590005062077891 6.000000000000000
3.041948915422324 0.957285845440801 -0.520491681972845 1.000000000000000
8.541577163064732 2.697505486924637 -1.628287647813571 6.000000000000000
2.892512554969267 0.913986958862001 -0.819791540199451 3.000000000000000
12.876763770601803 4.037691705019853 3.167656785619370 17.000000000000000
13.054633917301672 4.096789685964936 2.483476541509053 16.000000000000000
18.657661216339797 5.846862727400296 0.199153049571544 2.000000000000000
18.591146272005673 5.794617122859240 0.143721996777218 6.000000000000000
18.575285292556089 5.826187031984723 0.086769613663756 28.000000000000000
18.601711773261961 5.796962041045528 0.029857795211211 23.000000000000000
18.550935578601468 5.818810418053019 -0.026415731597235 23.000000000000000
18.626073338074832 5.806705093783691 -0.085518545538737 16.000000000000000
18.640410913516035 5.846848843747246 -0.143270250861959 18.000000000000000
18.696022999606086 5.829429149239335 -0.202006038669069 12.000000000000000
18.617627905001612 5.843344501101541 -0.256673577423269 17.000000000000000
18.696991717623590 5.828980474023954 -0.315637409622132 17.000000000000000
18.649015930897839 5.851827851712521 -0.372022304460771 23.000000000000000
18.709564382229388 5.871666171887938 -0.489467186285551 21.000000000000000
18.526015761936705 5.786265285195089 -0.535181246467165 33.000000000000000
18.349719957374930 5.702963438437699 -0.582868418676830 15.000000000000000
18.313714358862654 5.725640081893321 -0.635206657880492 27.000000000000000
18.298439430445434 5.688229850145671 -0.691394968928477 31.000000000000000
18.311286426693250 5.727551228875008 -0.747691895925055 29.000000000000000
14.377444075410535 4.508558377618758 -0.651347767968562 3.000000000000000
14.383455111706017 4.483511384175447 -0.696662954109067 0.000000000000000
14.318151828731787 4.492218493757925 -0.734405868529746 4.000000000000000
18.696901775599244 5.838876123569513 -1.002237845364873 4.000000000000000
13.822537091509991 4.303415138027852 -0.774863064612336 16.000000000000000
13.757186445730479 4.310773527992929 -0.812688230435247 21.000000000000000
13.784212364328766 4.297655558732856 -0.855184117635083 20.000000000000000
13.772485063469741 4.319744205830645 -0.897561648832640 23.000000000000000
13.781579308840103 4.296554474927625 -0.939211509540385 20.000000000000000
13.780884854166253 4.300040586693960 -1.191556077862222 22.000000000000000
13.355586743101899 4.187521533389017 -1.383095839177691 8.000000000000000
12.073873848492282 3.795672842532841 -1.422639428988078 7.000000000000000
10.185256146627687 3.179111637651584 -1.488639691909162 10.000000000000000
9.795018036398254 3.044678537474407 -1.588881280493092 7.000000000000000
3.039496910433709 0.946762966793589 -0.519365470568377 2.000000000000000
8.537603044794055 2.665457366727097 -1.625889322355500 6.000000000000000
12.854916790650272 3.984163186909186 3.159947060579450 19.000000000000000
13.120562927080666 4.066189512371292 2.490894514093454 17.000000000000000
18.723873875003463 5.761592624988584 0.026197964447905 3.000000000000000
18.665421099354283 5.781666827722535 -0.030169535631256 18.000000000000000
18.417259896700450 5.686609275953007 -0.528959509999067 6.000000000000000
18.327744272782162 5.661224508394746 -0.635914196860722 16.000000000000000
18.323890750367262 5.627075551828085 -0.692848132183622 35.000000000000000
18.336884831893684 5.666369599638475 -0.749167541809913 38.000000000000000
14.379548463503573 4.455813134867540 -0.651158209277184 3.000000000000000
18.510697357536216 5.717571904134157 -0.873999193543235 33.000000000000000
14.339467128211995 4.444920201786807 -0.735816697681501 6.000000000000000
14.110611106625685 4.356007746870254 -0.759830688119526 13.000000000000000
13.831688829178969 4.254712647627965 -0.775218615593347 15.000000000000000
13.766384640293641 4.262279551718251 -0.813027608441092 20.000000000000000
13.781734737204239 4.245991919690233 -0.854371829852187 22.000000000000000
13.766272560208449 4.267059401717326 -0.896306900309490 22.000000000000000
13.782982287877676 4.245927804404626 -0.938709700973170 18.000000000000000
13.782309591800411 4.249419591285143 -1.190845659002075 21.000000000000000
13.356637538971508 4.138389365944100 -1.382156567732003 7.000000000000000
12.085042599810425 3.754113111426982 -1.423264526784142 7.000000000000000
10.190470435230818 3.143158427731773 -1.488418550364632 11.000000000000000
9.788376685659246 3.007242538819295 -1.586125348679318 7.000000000000000
3.037005082771435 0.936264554550139 -0.518239044945535 2.000000000000000
8.544828933926409 2.636240139056877 -1.626332400214912 6.000000000000000
2.905569974069032 0.896198036646638 -0.825124599722867 2.000000000000000
11.310137496616786 3.444820828303769 2.832634982357039 4.000000000000000
11.969469259624013 3.668137121251529 2.312177655840981 10.000000000000000
23.715202787832183 7.205935898741696 -0.322057698794716 15.000000000000000
23.736585484061244 7.218461291187889 -0.468329764288368 13.000000000000000
23.764247753095141 7.220260803831859 -0.614699624673356 13.000000000000000
23.743373348590232 7.261848243753018 -0.685678635411379 11.000000000000000
14.572458386078980 4.423476904912015 -0.445559101804961 1.000000000000000
18.368488258667639 5.604193286677059 -0.638311104790339 20.000000000000000
14.510407557614363 4.406768828308731 -0.530074927392937 2.000000000000000
18.346884061683376 5.600817081788986 -0.749586324497294 34.000000000000000
14.551877353721217 4.417964319348275 -0.622011026767903 5.000000000000000
18.440162494183866 5.629065366244649 -0.868329055134156 1.000000000000000
14.610749243138045 4.437643750876898 -0.714995082521090 1.000000000000000
14.096824902533690 4.300129090674130 -0.758129333510667 13.000000000000000
13.848364615735065 4.208034357110730 -0.776292030436586 15.000000000000000
13.771559526507412 4.212745782810568 -0.812996878021545 17.000000000000000
13.786761462485972 4.196427998550085 -0.854322758763499 22.000000000000000
13.779084763959597 4.219588117300297 -0.897020192599555 22.000000000000000
13.795737066092624 4.198402255589958 -0.939423239147685 19.000000000000000
13.791223285765765 4.200874933082183 -1.191084430433679 22.000000000000000
13.353677340675501 4.088278694269977 -1.380673201985800 7.000000000000000
12.088417876953528 3.710507491929821 -1.422664322357573 7.000000000000000
10.191742136741258 3.106250800165387 -1.487448409583854 10.000000000000000
9.777789966750037 2.968937817694695 -1.582552373510489 8.000000000000000
3.038234134299501 0.926242998767698 -0.518398845046719 2.000000000000000
8.548173750868790 2.606085731123869 -1.625828442985932 6.000000000000000
2.878787487930869 0.873941004453684 -0.812018328049440 0.000000000000000
11.384952021676906 3.422288340731985 2.845339555698005 50.000000000000000
11.922896678588852 3.612099621598148 2.302894815253549 15.000000000000000
14.512368988223423 4.376985849080295 -0.131073058084113 0.000000000000000
23.673289106606411 7.147023228847825 -0.247870771789782 15.000000000000000
14.539033560741744 4.357300993729211 -0.177716945284285 8.000000000000000
14.536900706052466 4.383392843353601 -0.221394013778769 6.000000000000000
14.532514555015219 4.355259004189790 -0.265825665356471 18.000000000000000
23.765705383988156 7.172946922811068 -0.540257374992595 13.000000000000000
23.791170352459261 7.138960988102543 -0.616112031752695 2.000000000000000
23.778151263706427 7.182784842715090 -0.687488316707912 5.000000000000000
14.527921047763373 4.357980434795085 -0.442506049347626 23.000000000000000
18.397494585136215 5.543799988857696 -0.639987411011756 25.000000000000000
18.379936781119333 5.574244500180676 -0.696329627565626 31.000000000000000
18.402858387245992 5.547848379828380 -0.753184864085597 32.000000000000000
18.371644266091330 5.506162644672060 -0.807936985907357 37.000000000000000
14.568223529825085 4.399365726172707 -0.665754786665347 2.000000000000000
14.566325346501339 4.372020433396440 -0.710891265697476 18.000000000000000
14.117498577610112 4.253538713403600 -0.759553555092979 14.000000000000000
18.403463864664566 5.517347491409993 -1.034349146346004 0.000000000000000
13.780404335295705 4.164240600481481 -0.813337082361887 17.000000000000000
13.795457011579252 4.147880088417004 -0.854656006669605 21.000000000000000
13.787882011970254 4.171062583102962 -0.897340337573907 23.000000000000000
13.785223409170877 4.144784204831215 -0.937705206439063 19.000000000000000
13.796120809467157 4.151306812668064 -1.190848768079342 22.000000000000000
13.354358605993731 4.039234768950653 -1.379733078112073 7.000000000000000
12.087803462140700 3.665922604451652 -1.421450932129819 7.000000000000000
10.211945333861339 3.074100677999823 -1.490225451336735 11.000000000000000
9.789873393699938 2.936324508740721 -1.583876068435278 8.000000000000000
3.035664607895974 0.915776651621140 -0.517272020713062 3.000000000000000
8.551408558840905 2.575931757346588 -1.625324666787299 6.000000000000000
11.280859303132374 3.354600638785499 2.821300983317944 9.000000000000000
11.925945208085293 3.569102222909230 2.301122155550832 16.000000000000000
14.741767819722538 4.379391467766375 -0.052340438552366 2.000000000000000
23.719282515601869 7.024120254481094 -0.178020843389437 6.000000000000000
14.541049992080669 4.330933798990319 -0.132512068152742 17.000000000000000
14.544452496996664 4.305129857146390 -0.178103589184332 25.000000000000000
14.534701433230419 4.329197541183671 -0.221366263763738 27.000000000000000
14.526361866553373 4.300090261442076 -0.265542202904174 28.000000000000000
14.535700111789071 4.329523532299881 -0.309327419716904 23.000000000000000
23.798541113326600 7.052282499789687 -0.616612333692294 7.000000000000000
14.561601765608197 4.340242898624492 -0.399387030980495 10.000000000000000
14.537202127817825 4.306849961019779 -0.443005230230009 25.000000000000000
18.410872252501427 5.479131528980993 -0.640699712087897 26.000000000000000
18.397293263578995 5.510676901709402 -0.697281460286261 35.000000000000000
18.370027074297838 5.470734906312888 -0.750690264754462 30.000000000000000
14.547651761917942 4.309453835360230 -0.621106699565563 21.000000000000000
14.550615757841188 4.341047967882677 -0.664013057612745 20.000000000000000
14.560208094686251 4.316753412196796 -0.710025201252741 20.000000000000000
18.433436857007052 5.489906696908054 -0.978991395813131 0.000000000000000
13.850376792251895 4.106498641930862 -0.775570318469341 12.000000000000000
13.792928692796556 4.116722277859100 -0.814048841850321 17.000000000000000
13.803979372799883 4.099317705721948 -0.854989716846956 19.000000000000000
13.792650887111359 4.121517901421790 -0.897266804377644 19.000000000000000
13.801473604359890 4.098242794673819 -0.938825021905440 20.000000000000000
13.804681997321287 4.102741452281393 -1.191088356998409 22.000000000000000
13.366367505149558 3.993206025821035 -1.380424901818829 7.000000000000000
12.094684501029377 3.623324950865243 -1.421463986223223 7.000000000000000
10.212960571728244 3.037173780166782 -1.489255988928085 10.000000000000000
9.779003188340933 2.898146939913513 -1.580301505680437 8.000000000000000
3.036817796058177 0.905759173731084 -0.517431856379080 3.000000000000000
8.562100679936561 2.547559625389869 -1.626716819166117 6.000000000000000
11.370706767426149 3.335466266125891 2.837125496288921 30.000000000000000
11.924995831579576 3.525147437377839 2.298772693303633 16.000000000000000
14.832445092778986 4.375467730598071 -0.011323290008428 0.000000000000000
14.762800289791906 4.330510531968777 -0.053399285080251 2.000000000000000
23.730109643485434 6.938794438649605 -0.178912046920561 6.000000000000000
14.546357505881916 4.278773315933890 -0.132923560884372 27.000000000000000
23.802851504148698 6.964320907262621 -0.326416801041955 5.000000000000000
14.547773296530039 4.279041902191139 -0.222119381952977 26.000000000000000
14.543216575049083 4.250953870669886 -0.266501601510704 26.000000000000000
23.780349116968686 6.999750092212548 -0.541354543692330 14.000000000000000
23.809449964651328 6.966679248759373 -0.617295641353184 9.000000000000000
14.570800842128982 4.289001847778408 -0.399900718752220 28.000000000000000
14.550167686233706 4.256688013620501 -0.443759229350516 23.000000000000000
18.420160092268326 5.413408009065112 -0.641170994567550 32.000000000000000
14.546055734326588 4.255426687290743 -0.532051970537187 22.000000000000000
14.519998198681090 4.275615146369180 -0.573347325891675 26.000000000000000
14.552959939172794 4.257275308139018 -0.621255939188028 22.000000000000000
14.567535050520881 4.291833327802543 -0.665080725765338 21.000000000000000
14.573195883508589 4.266515134912076 -0.710780339415396 21.000000000000000
14.531196539758069 4.282567902126818 -0.750881123643105 18.000000000000000
13.839517452458839 4.052837765623906 -0.774131245245287 11.000000000000000
13.789855267976364 4.065197015157786 -0.813276534574923 16.000000000000000
13.808466343685087 4.049758584969293 -0.854941383930565 19.000000000000000
13.797237291268790 4.071982356812708 -0.897193391536474 19.000000000000000
13.805992853902936 4.048676503623415 -0.938728695514803 20.000000000000000
13.805370745560966 4.052187613073286 -1.190377789937605 22.000000000000000
13.370533002889237 3.945164279036870 -1.380029057082375 7.000000000000000
12.101410635753561 3.580728454830314 -1.421477410324818 7.000000000000000
10.229118173094493 3.003948978165617 -1.491285842351395 10.000000000000000
9.779413557662011 2.862789243007938 -1.579175791154497 9.000000000000000
3.037935618924630 0.895738800946422 -0.517591798724156 4.000000000000000
8.568909033121104 2.518258682688977 -1.627161717050608 6.000000000000000
11.334737433406804 3.285262701354679 2.827160964531345 18.000000000000000
11.962309901383325 3.490730367791603 2.302192395707055 18.000000000000000
14.841831460186505 4.323285098387192 -0.011954485246695 0.000000000000000
14.783665518237804 4.281526413990861 -0.054459907181010 2.000000000000000
23.736761528900288 6.852436769538567 -0.179691134002451 7.000000000000000
14.570845471980720 4.231515864528685 -0.134194565838553 25.000000000000000
14.557426730788965 4.254944674968016 -0.178858018839681 24.000000000000000
14.560671063616578 4.228832055877145 -0.222873378282006 27.000000000000000
23.810356787631136 6.919396079349585 -0.542929515072332 1.000000000000000
23.827772630010791 6.883130963391746 -0.618345787377474 0.000000000000000
14.575946240921356 4.236764109618033 -0.400172551175107 26.000000000000000
14.555215674619420 4.204536582077395 -0.444005135675225 21.000000000000000
14.548806832057890 4.229755957255819 -0.487226057982291 20.000000000000000
14.555001533601818 4.204260053230286 -0.532527266482745 21.000000000000000
14.532899131664369 4.225515251193951 -0.574098404105564 28.000000000000000
14.565809791877692 4.207059052922300 -0.622008125583569 23.000000000000000
14.572686708933061 4.239607400783452 -0.665211961700929 23.000000000000000
14.578272299864006 4.214281317305328 -0.710887129570682 22.000000000000000
14.524763475352218 4.227511870583196 -0.749954001026983 19.000000000000000
13.890273014411713 4.014809948746322 -0.778441903962409 15.000000000000000
13.798169639499408 4.016668525286100 -0.813617840138384 16.000000000000000
13.812772840444053 4.000211851115598 -0.854893115557385 19.000000000000000
13.801645015142434 4.022462573791344 -0.897119994618902 19.000000000000000
13.814191074122240 4.000102458316821 -0.939038434682987 17.000000000000000
13.802019429224588 4.000719002686882 -1.189191314080785 21.000000000000000
13.370680119240850 3.896184382596928 -1.379088712781595 7.000000000000000
12.092637416753385 3.534322117079935 -1.419035835141505 7.000000000000000
10.233695247254619 2.967921668694125 -1.491066900729735 10.000000000000000
9.783504588656184 2.828353213800373 -1.578866834678377 9.000000000000000
3.046547192788218 0.886512612941321 -0.520326380797344 7.000000000000000
8.568032903307262 2.487212497535367 -1.625710567707757 6.000000000000000
11.298551537029493 3.235344389111503 2.817200261696130 19.000000000000000
11.937986693367836 3.441133348227854 2.296381405600882 19.000000000000000
14.889798496157988 4.280839537029841 -0.013955447651882 0.000000000000000
14.788855539757494 4.228565869515617 -0.054927584867678 1.000000000000000
14.574134374464583 4.201449847879857 -0.091384013527332 4.000000000000000
14.579666398245720 4.180270997056802 -0.134779449536822 23.000000000000000
14.574096942638487 4.205684011909373 -0.179797437663398 25.000000000000000
14.565637846641472 4.176651806343976 -0.223236762809248 23.000000000000000
14.559904168363930 4.201750032835236 -0.267462212324222 26.000000000000000
14.558981850697814 4.175037530991695 -0.310708902897778 25.000000000000000
14.560619273369605 4.201814761953212 -0.356188520888735 29.000000000000000
14.588649165083735 4.186468064135099 -0.400929748171620 27.000000000000000
14.575570897596061 4.156222861446960 -0.445270005184454 21.000000000000000
14.561515867188175 4.179554620121937 -0.487980340545929 21.000000000000000
14.567635899945373 4.154037427487541 -0.533281275675189 22.000000000000000
14.541753498359654 4.174400117502909 -0.574560942403874 32.000000000000000
14.574614669060361 4.155826386842321 -0.622459613722787 31.000000000000000
14.581517852416034 4.188358476829986 -0.665656086273605 23.000000000000000
14.587029756936261 4.163010307115869 -0.711318877529170 22.000000000000000
14.541316485882637 4.178361448211547 -0.751043295404406 20.000000000000000
13.898386758461712 3.965952776881938 -0.778801254025708 14.000000000000000
13.810173049806654 3.969076296294617 -0.814331314831514 17.000000000000000
13.813033571308608 3.949728472962949 -0.854461900992007 20.000000000000000
13.809732168131136 3.973898755247156 -0.897441574470943 19.000000000000000
13.806763755086328 3.947701954342829 -0.937723698962540 19.000000000000000
13.825464341773380 3.955988142898214 -1.191334265878718 21.000000000000000
13.374490726234210 3.848195027413414 -1.378692737964966 7.000000000000000
12.102884155533607 3.492697611464187 -1.419663206846823 7.000000000000000
10.241968447597769 2.932792029245672 -1.491598456232024 10.000000000000000
9.783655822048054 2.793033845958075 -1.577740903929596 9.000000000000000
3.032526224722208 0.874907277898640 -0.515337006104979 4.000000000000000
8.578419668751886 2.458736975636970 -1.627104632415708 6.000000000000000
11.281246873490405 3.190196992286420 2.811147996117829 18.000000000000000
11.921157552363990 3.393584743210560 2.291726197325402 23.000000000000000
14.856163468748681 4.217902970952988 -0.013081271987185 0.000000000000000
14.797733051170324 4.176570305603811 -0.055544306299540 2.000000000000000
23.777906964919048 6.775236737224507 -0.181485030983680 7.000000000000000
14.588303436222331 4.129009276329747 -0.135364775744674 23.000000000000000
14.582840893608505 4.154423552925788 -0.180369699755182 24.000000000000000
14.574295848983654 4.125439476982823 -0.223796203421702 25.000000000000000
14.568665194578672 4.150545836338225 -0.268008816075537 29.000000000000000
14.575417692426999 4.125755743515562 -0.311681901355328 26.000000000000000
14.577165175064200 4.152528212110695 -0.357172622229687 31.000000000000000
14.597297596837153 4.135175830246652 -0.401444984504615 25.000000000000000
14.576370955496785 4.103086448345930 -0.445262126646085 21.000000000000000
14.577923401907334 4.130264138208869 -0.489001888677367 23.000000000000000
14.576216875285789 4.102821845683348 -0.533757847675262 23.000000000000000
14.558170417490704 4.125180324669678 -0.575603336000129 35.000000000000000
14.594854776481828 4.107437119436014 -0.623817027817346 22.000000000000000
14.597910090001445 4.138997582514282 -0.666726744133098 24.000000000000000
14.595600653378783 4.111728565351243 -0.711751185056669 23.000000000000000
14.557701975347838 4.129143828531117 -0.752133823822453 19.000000000000000
13.910195268700418 3.918019201426691 -0.779520937900443 14.000000000000000
13.810407583287285 3.918605018084687 -0.813930058944641 17.000000000000000
13.813105357068604 3.899280591910799 -0.854030384009156 20.000000000000000
13.817646437507522 3.925333709365113 -0.897763553703875 19.000000000000000
13.814598217407884 3.899149932305189 -0.938033614552619 19.000000000000000
13.814029541558686 3.902678616781863 -1.189195875036748 22.000000000000000
13.374275767137137 3.799280887042304 -1.377751903188144 7.000000000000000
12.116826065062551 3.451960236116541 -1.420905598563376 7.000000000000000
10.234799878185902 2.894106178669382 -1.489128777846922 9.000000000000000
9.783675623408456 2.757739264101748 -1.576614759683201 8.000000000000000
3.038269301861670 0.855252923308353 -0.516944670997812 3.000000000000000
8.584912600897912 2.429379118050662 -1.627550856461037 6.000000000000000
11.286695097339800 3.150505240603401 2.809781295724396 17.000000000000000
11.911843725830950 3.348004348478611 2.288225671580717 21.000000000000000
14.864984357828581 4.165678267848467 -0.013713851780896 0.000000000000000
14.787001791337412 4.119838226747682 -0.055416169955662 2.000000000000000
23.772343439245326 6.685821178822291 -0.181926917732300 7.000000000000000
14.604526007095082 4.079607108977232 -0.136295627280586 25.000000000000000
14.591400281461375 4.103155612328585 -0.180942499125034 24.000000000000000
14.590534417149041 4.076090511190039 -0.224748467409932 25.000000000000000
14.581123605301229 4.100274625686090 -0.268763836392707 28.000000000000000
14.583923152811417 4.074515859823418 -0.312217129740725 25.000000000000000
14.581903814374929 4.100325792988070 -0.357463709207781 27.000000000000000
14.609642778192253 4.084804101986933 -0.402203754464030 31.000000000000000
14.592501391700145 4.053724286910619 -0.446274265867219 24.000000000000000
14.586403323361052 4.079021307991322 -0.489491663729874 20.000000000000000
14.584615960432773 4.051592660705225 -0.534234869690366 23.000000000000000
14.566664331013303 4.074000127354807 -0.576067338335910 30.000000000000000
14.595547544461613 4.054265830929506 -0.623666160562889 23.000000000000000
14.610256083707615 4.088625354866906 -0.667485500221627 24.000000000000000
14.615616887836460 4.063231406219884 -0.713159774971436 23.000000000000000
14.570042998613228 4.078913408403917 -0.752889066852030 20.000000000000000
13.921835608533588 3.870050165395977 -0.780241457814682 14.000000000000000
13.814324986565108 3.869109606187052 -0.813900531219104 18.000000000000000
13.824606640842035 3.851647718416068 -0.854748649406931 20.000000000000000
13.825386300047864 3.876754939912775 -0.898085993667085 20.000000000000000
13.814520943767302 3.848734288588371 -0.937530677478567 18.000000000000000
13.821698699228385 3.854119595202938 -1.189436612767419 22.000000000000000
13.381585245774643 3.752257859749292 -1.377900900060260 7.000000000000000
12.107550200270694 3.405701536301766 -1.418462493595857 7.000000000000000
10.250476599597240 2.860700039505268 -1.491162051775240 10.000000000000000
9.779743239450731 2.721620437042134 -1.574670870837135 9.000000000000000
3.035430317802996 0.844878252115830 -0.515816902439996 0.000000000000000
8.583704641580615 2.398357724018339 -1.626099773750916 6.000000000000000
11.318776913744006 3.116905760457126 2.813877510530787 17.000000000000000
11.830942941591781 3.243054776085010 2.272013797583967 16.000000000000000
14.858071407139700 4.109697448326155 -0.013796850695642 0.000000000000000
14.787712258341843 4.066014310929315 -0.055734435830089 2.000000000000000
23.797440062709008 6.604415406977889 -0.183272854023847 9.000000000000000
14.608914695706128 4.027361986540765 -0.136709679713657 25.000000000000000
14.607548349182373 4.053741200996051 -0.181884990822417 25.000000000000000
14.602715787921740 4.025743294361337 -0.225505750083633 25.000000000000000
14.593406599441687 4.049963451726882 -0.269519703425631 30.000000000000000
14.592244287113925 4.023263871359777 -0.312752909346590 25.000000000000000
14.594216136928317 4.050010007567600 -0.358218127299024 31.000000000000000
14.621811528691149 4.034393034894155 -0.402963448070588 27.000000000000000
14.596806749881370 4.001532178217868 -0.446521853896608 29.000000000000000
14.598581133975600 4.028689707295907 -0.490248655160562 20.000000000000000
14.600593895172267 4.002185765084040 -0.535269961961768 24.000000000000000
14.574974323464787 4.022807575335161 -0.576531825363934 32.000000000000000
14.592163581620039 4.000209558403050 -0.623212779923675 28.000000000000000
14.618544176810010 4.037284769288732 -0.667931783726401 23.000000000000000
14.623832208415767 4.011881605163921 -0.713593627191248 22.000000000000000
14.582206811454068 4.028639650280912 -0.753645205216973 21.000000000000000
13.917796896742257 3.818375584259602 -0.779521868072280 15.000000000000000
13.814185932994990 3.818702202979850 -0.813498838558194 18.000000000000000
13.828190190253805 3.802155654404508 -0.854700564644099 21.000000000000000
13.825205081296998 3.826323129543859 -0.897618080093542 19.000000000000000
13.829749911823935 3.802014466939767 -0.938654645589769 19.000000000000000
13.825326878434424 3.804632931687536 -1.189201496372846 21.000000000000000
13.396439191661671 3.707046490474479 -1.379140878483928 7.000000000000000
12.113493717691055 3.363135934664570 -1.418476632778334 7.000000000000000
10.254535544053892 2.824653053444823 -1.490944164895140 9.000000000000000
9.783323706533421 2.687231707351568 -1.574361806922010 9.000000000000000
3.036325868295528 0.834862369395864 -0.515977057507292 0.000000000000000
8.589983450587395 2.368970250121802 -1.626546605592600 6.000000000000000
11.312474677257903 3.074540252482556 2.810168327087708 21.000000000000000
11.848087287235497 3.204066708053805 2.272550409971910 18.000000000000000
14.909296710100206 4.067629808275900 -0.015944667929519 0.000000000000000
14.807680533490977 4.016811247604949 -0.056799637499305 2.000000000000000
23.806741430948755 6.519015209394670 -0.184167290257327 10.000000000000000
14.617002988094445 3.976038963245475 -0.137296736871877 25.000000000000000
14.611857897589086 4.001495057236969 -0.182274362886050 24.000000000000000
14.606941124156545 3.973526116668566 -0.225870718506326 27.000000000000000
14.601623250247892 3.998681836661838 -0.270068196313879 28.000000000000000
14.600380925029471 3.971995404421129 -0.313289201457984 26.000000000000000
14.602465076950081 3.998726062856345 -0.358741674920654 31.000000000000000
14.626026648074191 3.982113507788011 -0.403237236118009 29.000000000000000
14.616473669260381 3.952978771175893 -0.447791451609175 25.000000000000000
14.614467442253932 3.979231483506691 -0.491273493303491 25.000000000000000
14.608632864262423 3.950900263170755 -0.535748346665876 22.000000000000000
14.594750420644422 3.974349340525059 -0.577867585031367 31.000000000000000
14.619641408087491 3.953499249120785 -0.625177865069057 22.000000000000000
14.638296390228353 3.988667409243156 -0.669319353386167 23.000000000000000
14.631862626141396 3.960515575266932 -0.714027983953834 24.000000000000000
14.601953043500917 3.980152040027146 -0.755076322736226 20.000000000000000
13.936845918512942 3.772183782056704 -0.780964199460845 15.000000000000000
13.821617522987561 3.770160940488033 -0.813841591367447 17.000000000000000
13.843228556808489 3.755369033647533 -0.855803876878071 20.000000000000000
13.832590840477909 3.777747022178911 -0.897940973079196 19.000000000000000
13.837063488393206 3.753433270867674 -0.938965826249234 20.000000000000000
13.836513929106898 3.756969253079330 -1.189919424682535 22.000000000000000
13.403417569984235 3.659980658263130 -1.379291063768211 8.000000000000000
12.115431134108187 3.319672770933355 -1.417876296835125 7.000000000000000
10.258464264452686 2.788605489622611 -1.490726440898396 10.000000000000000
9.782953392938625 2.652020107684795 -1.573234965428105 9.000000000000000
3.033411874228318 0.824511392345030 -0.514848752087901 0.000000000000000
8.592354680769049 2.338778275575851 -1.626044598832151 6.000000000000000
11.317504040131521 3.034779028825508 2.808800076464363 18.000000000000000
11.849638510768630 3.161575077897322 2.270783425927570 15.000000000000000
14.948723955424795 4.022524299310113 -0.017683674890188 0.000000000000000
14.815800305198879 3.964806671712779 -0.057417552942148 2.000000000000000
23.831258111744113 6.437450906385425 -0.185516375211820 9.000000000000000
14.624908374850492 3.924702961010841 -0.137884261383733 23.000000000000000
14.623762396387498 3.951076207456321 -0.183033827445658 27.000000000000000
14.614869374457230 3.922229386273980 -0.226432539811882 29.000000000000000
14.617436556412994 3.949204839831239 -0.271034234607689 29.000000000000000
14.608334860400511 3.920713833696212 -0.313825957455294 27.000000000000000
14.614419420825687 3.948339218056397 -0.359497711625181 33.000000000000000
14.641723106288103 3.932543253276609 -0.404241881651115 31.000000000000000
14.632083390535078 3.903435123956005 -0.448807104915068 29.000000000000000
14.618517178950730 3.927008014871713 -0.491498183682083 20.000000000000000
14.620374467836664 3.900491930740010 -0.536506421892031 23.000000000000000
14.598817959423132 3.922185789507807 -0.578043158889491 29.000000000000000
14.619761840805896 3.900361729239240 -0.625027287619338 25.000000000000000
14.638455593869345 3.935460820236138 -0.669139560513975 24.000000000000000
14.643594761677337 3.910028025773492 -0.714788678902129 24.000000000000000
14.598239004465913 3.926175489516169 -0.754485605976547 20.000000000000000
13.944089428209146 3.723234503118139 -0.781326188100989 14.000000000000000
13.824992656132196 3.720707686686637 -0.813812179241327 16.000000000000000
13.846459530030215 3.705865263625249 -0.855756463045992 20.000000000000000
13.843680293770630 3.730049301699772 -0.898660137151394 19.000000000000000
13.832563555780942 3.702173375715393 -0.938055798736426 19.000000000000000
13.839789392693207 3.707488876048838 -1.189684723350786 21.000000000000000
13.398638959352629 3.610243993400548 -1.377804594999899 8.000000000000000
12.121064109311103 3.277098736692462 -1.417890905669865 7.000000000000000
4.471241658362903 1.199750798186678 -0.589793023729607 0.000000000000000
9.786282059810976 2.617636099830804 -1.572926034642377 10.000000000000000
3.034233558285193 0.814502837359264 -0.515008890632698 0.000000000000000
8.602229577022136 2.310153884467205 -1.627441635220247 6.000000000000000
11.268708800270320 2.983392819446816 2.796514041593733 19.000000000000000
14.910089041865875 3.959303856252919 -0.016663696163309 0.000000000000000
14.827629224227378 3.913673190637983 -0.058185837237210 2.000000000000000
23.843838623718860 6.352961576012589 -0.186525904842911 9.000000000000000
14.640423765004131 3.875121945067669 -0.138818803115028 26.000000000000000
14.635486266216772 3.900611643766453 -0.183794263702015 24.000000000000000
14.634300410235070 3.873572782091617 -0.227585753468308 26.000000000000000
14.629185684149617 3.898765024961236 -0.271792766198865 30.000000000000000
14.623891088506074 3.871193494179419 -0.314803752287497 25.000000000000000
14.626195538837901 3.897909659495209 -0.360254661003680 27.000000000000000
14.641674086886050 3.879364997056847 -0.404272586046525 32.000000000000000
14.635841794640976 3.851185086904891 -0.449056256089649 29.000000000000000
14.630159968438514 3.876566390025644 -0.492257608590797 24.000000000000000
14.631939435719822 3.850044383963958 -0.537265334843877 25.000000000000000
14.614362348969930 3.872700710199450 -0.579090794750743 31.000000000000000
14.631355900066749 3.849914194159801 -0.625784737687102 24.000000000000000
14.642308617470698 3.883182138411009 -0.669273407996147 25.000000000000000
14.651258728145351 3.858614046369357 -0.715224205377240 24.000000000000000
14.613749764911260 3.876689458485444 -0.755581462011035 21.000000000000000
13.962815025370475 3.676896693268933 -0.782771194673900 14.000000000000000
13.832070891676707 3.672150719290716 -0.814155641711438 18.000000000000000
13.841741179091615 3.654638102645247 -0.854940676819586 20.000000000000000
13.842955276843634 3.679674017345622 -0.898192076574373 19.000000000000000
13.843402638643107 3.654477252178207 -0.938774629698615 19.000000000000000
13.839007777775308 3.657148944027060 -1.188973135906672 21.000000000000000
13.409137253108382 3.564064409545797 -1.378500824944153 11.000000000000000
12.126544650767839 3.234519863409389 -1.417905830513869 8.000000000000000
4.477233953765724 1.185265073896989 -0.590980687578019 2.000000000000000
9.789486869138393 2.583265513075972 -1.572617264910790 10.000000000000000
3.031241987190040 0.804195047054129 -0.513880318287815 0.000000000000000
8.600577792853903 2.279179080536309 -1.625990455073237 6.000000000000000
11.269574538011453 2.942996423228468 2.794368401859750 22.000000000000000
11.912923594593913 3.132554415563458 2.278221647547252 16.000000000000000
14.933581920053866 3.910484842957036 -0.017852697176445 0.000000000000000
14.819777514983466 3.858124893235818 -0.058204606334823 2.000000000000000
23.867779695151675 6.271253988689711 -0.187878052122780 10.000000000000000
14.636266609628619 3.821119277986032 -0.138887268090722 36.000000000000000
14.643136383919503 3.849226332880818 -0.184370044461116 26.000000000000000
14.645767720501809 3.823073326499259 -0.228346336572110 26.000000000000000
14.632966245044255 3.846525242967800 -0.272134325638248 24.000000000000000
14.627587039206439 3.818982929622194 -0.315121332170860 22.000000000000000
14.637795834092474 3.847440387320784 -0.361012464033377 29.000000000000000
14.653119150449751 3.828843418012418 -0.405034944796788 32.000000000000000
14.633835049936421 3.824335824946736 -0.492482853816054 23.000000000000000
14.629736373931582 3.823150181379280 -0.580139698302520 32.000000000000000
14.653752293367493 3.832656934984030 -0.670035808430579 25.000000000000000
14.666523743857455 3.808925159624653 -0.716312712936430 23.000000000000000
14.621312091507095 3.825391446493828 -0.756003262168014 21.000000000000000
13.965825571303332 3.627009751016725 -0.782773603244949 15.000000000000000
13.835088159453516 3.622715868811305 -0.814126458149801 17.000000000000000
13.852381980800722 3.606907130262464 -0.855661622918325 20.000000000000000
13.849812630656119 3.631073354178433 -0.898516088249619 19.000000000000000
13.854072365792637 3.606741918686428 -0.939494297671267 20.000000000000000
13.849675739482675 3.609432601536867 -1.189692508711285 21.000000000000000
13.380783617967730 3.509269800295396 -1.373736957922499 19.000000000000000
12.139595619479014 3.193622521692944 -1.419151880958673 10.000000000000000
4.361995866581611 1.139248659415014 -0.561892210765843 1.000000000000000
9.792567700372311 2.548897226010919 -1.572308584040802 10.000000000000000
9.319332660453627 2.421366953303956 -1.638211622031852 7.000000000000000
8.610246058512132 2.250498089468017 -1.627388657398152 6.000000000000000
11.258771090359829 2.900214323758959 2.789884932678162 23.000000000000000
11.644165049053393 2.990296558158718 2.234437701781745 18.000000000000000
14.917886124498386 3.852870815385202 -0.017658448215998 0.000000000000000
14.823426093886825 3.805247329205500 -0.058673044791757 3.000000000000000
23.883655215031474 6.187612061979401 -0.189003752788987 10.000000000000000
14.663133294481868 3.774042006789212 -0.140344336572634 24.000000000000000
14.646701669834107 3.796967374329686 -0.184760660486058 29.000000000000000
14.653157424629768 3.771677690015750 -0.228910377115583 21.000000000000000
14.644353022758599 3.796030484478703 -0.272894258063361 22.000000000000000
14.642792302747702 3.769360359925081 -0.316101091465106 22.000000000000000
14.649216176072891 3.796929462344455 -0.361771149619894 26.000000000000000
14.664385783897563 3.778279249814254 -0.405798160095961 34.000000000000000
14.654996574387111 3.802413589452691 -0.450329913712683 26.000000000000000
14.656808203317294 3.776419804831288 -0.494046874359479 20.000000000000000
14.651114097511515 3.801288262111235 -0.538584297767155 22.000000000000000
14.629357370929172 3.770073859465668 -0.580025612882770 27.000000000000000
14.638879870675501 3.798559688271595 -0.626240020396599 23.000000000000000
14.684489742774673 3.786376549683450 -0.672371164297530 23.000000000000000
14.677722045473768 3.758317903179460 -0.717075976296091 22.000000000000000
14.640367715773786 3.776661086718342 -0.757439031095760 20.000000000000000
13.980333656566270 3.579697927881412 -0.783859723327547 15.000000000000000
13.837925527837539 3.573297528881358 -0.814097281521700 17.000000000000000
13.862854408288557 3.559140822001467 -0.856383371278801 19.000000000000000
13.860385876163740 3.583316724472581 -0.899236870528953 19.000000000000000
13.860686141179768 3.558125068572199 -0.939806919420507 20.000000000000000
13.860173938865087 3.561677298696107 -1.190412703114510 20.000000000000000
13.232190506809197 3.428547307985855 -1.352034506788607 26.000000000000000
12.137047211586699 3.149348348319318 -1.417936529850433 7.000000000000000
4.387040641373416 1.127601893826228 -0.567843496993175 3.000000000000000
9.791685802171191 2.513760414156870 -1.571181306146921 10.000000000000000
3.081077283596514 0.797866931644553 -0.530798246877262 0.000000000000000
8.612186295175894 2.220288864305562 -1.626887512780849 6.000000000000000
11.320818617542193 2.872534752912557 2.800207678652422 14.000000000000000
11.625556852324879 2.944615361540567 2.229808402883599 19.000000000000000
11.988452726499260 3.029194152834837 1.634951631982118 2.000000000000000
14.956644269002465 3.807357138671986 -0.019404601384685 0.000000000000000
14.826881873538728 3.752394202725583 -0.059141516705981 2.000000000000000
23.907021662684365 6.105738200118672 -0.190359214352299 11.000000000000000
14.666407983072245 3.721756047885883 -0.140760652704974 14.000000000000000
14.665693928097308 3.748132303976817 -0.185894610771569 23.000000000000000
14.672074491237714 3.722804118686245 -0.230067592502793 32.000000000000000
14.651660809291675 3.744644681940837 -0.273445671441192 23.000000000000000
14.661728022377268 3.720529776260225 -0.317303018491790 24.000000000000000
14.664360224593674 3.747237243298581 -0.362763473871161 32.000000000000000
14.671571456041463 3.726833642721825 -0.406317861370567 29.000000000000000
14.654484269805115 3.749286575038909 -0.450323741247057 25.000000000000000
14.671821306316398 3.726692233459620 -0.495077043907331 25.000000000000000
14.670124257901339 3.752440704914843 -0.539904875892064 26.000000000000000
14.648272431066259 3.721289557763779 -0.581367498841188 30.000000000000000
14.657906822931929 3.749760740792780 -0.627605353756743 23.000000000000000
14.676106318378508 3.731486508941302 -0.671563139245114 22.000000000000000
14.684844413905346 3.706833754391418 -0.717513412827165 24.000000000000000
14.655362129424590 3.726990886053528 -0.758538416048174 17.000000000000000
13.990779391057124 3.531482404982274 -0.784585668754608 15.000000000000000
13.856153167053243 3.527266012989351 -0.815561863774199 17.000000000000000
13.869263547790284 3.510506830225303 -0.856721143386714 20.000000000000000
13.859117568044727 3.533011086435575 -0.898768577967634 19.000000000000000
13.867125677852009 3.509498868142245 -0.940119928878499 20.000000000000000
13.870502376504913 3.513883035624502 -1.191133748912740 21.000000000000000
13.269173587945520 3.388762864737483 -1.356548315972139 21.000000000000000
12.142067910012113 3.106743085268377 -1.417952321254621 7.000000000000000
4.392782977958314 1.113352546242723 -0.569027823328851 3.000000000000000
9.794514731352363 2.479410343861304 -1.570872706175968 10.000000000000000
3.115792338602058 0.790117047121182 -0.542564349778310 0.000000000000000
8.614017705119053 2.190083822049438 -1.626386391791879 6.000000000000000
11.317429784348773 2.831261354060597 2.797281185237324 21.000000000000000
11.571850754345100 2.892024643017471 2.220010810223475 18.000000000000000
14.967904208870918 3.755722653062190 -0.020181846162223 1.000000000000000
14.849691357192155 3.703726980211037 -0.060363534367103 3.000000000000000
23.910616560127075 6.019311231525034 -0.191143660200419 11.000000000000000
14.669491766931275 3.669484406049346 -0.141176946312572 44.000000000000000
14.676703972992586 3.697524310635419 -0.186658247843422 33.000000000000000
14.671290783408748 3.669681019707863 -0.230237510166895 38.000000000000000
14.643163762595353 3.689873121641281 -0.273159455711005 40.000000000000000
14.664874140661338 3.668267529272963 -0.317622133065538 35.000000000000000
14.667620612352909 3.694949163136986 -0.363057923807799 34.000000000000000
14.686383254757017 3.677036891062244 -0.407327234231689 34.000000000000000
14.653778785575735 3.696206613020941 -0.450317131302752 30.000000000000000
14.659338197717238 3.671069889382597 -0.494231336025868 22.000000000000000
14.661665375208266 3.697608718613118 -0.539267313874731 23.000000000000000
14.647517583896024 3.668242686986783 -0.581253665813534 28.000000000000000
14.661173055683742 3.697498152299698 -0.627758743027827 25.000000000000000
14.683117499065942 3.680017150729107 -0.672013167109723 27.000000000000000
14.687879936599957 3.654510753266553 -0.717624427193563 24.000000000000000
14.642900245458925 3.671429344171756 -0.757271245905983 18.000000000000000
13.993261359991509 3.481593398093580 -0.784589012126372 16.000000000000000
13.862538988223003 3.478659902034170 -0.815907073980820 16.000000000000000
13.875500039331806 3.461866987669055 -0.857059258051488 19.000000000000000
13.865450272222036 3.484396990083184 -0.899093534347171 19.000000000000000
13.885071435465004 3.463305909237768 -0.941658070270246 20.000000000000000
13.876777593143391 3.465226845230784 -1.191377783119118 22.000000000000000
13.368070445369893 3.361811683613617 -1.369813024229703 21.000000000000000
4.201339405901216 1.046321607109444 -0.521040724151798 0.000000000000000
4.336785263236313 1.091503700674675 -0.554947062786735 1.000000000000000
9.789533447620963 2.443577770484950 -1.568925990549638 11.000000000000000
3.027053407009313 0.753701588399352 -0.512102149875783 0.000000000000000
8.615739037032272 2.159888210331548 -1.625885357420233 6.000000000000000
11.360068518879226 2.799197640539738 2.803700806324129 17.000000000000000
11.673208884025499 2.870758322217558 2.233191571004427 17.000000000000000
14.982891644636288 3.704885133118371 -0.021099085355094 1.000000000000000
14.927105636823780 3.666425408155035 -0.063699978206775 8.000000000000000
23.925597538080368 5.935556316592162 -0.192272275252991 11.000000000000000
14.691946656525626 3.621313743941659 -0.142464708220986 39.000000000000000
14.675806279358412 3.644404659995637 -0.186863943593874 41.000000000000000
14.678130111422581 3.618225078234271 -0.230803011438592 39.000000000000000
14.665725191264633 3.641826703293265 -0.274549799646175 41.000000000000000
14.675648716809437 3.617665384001818 -0.318383850665369 35.000000000000000
14.678505253718832 3.644337584693812 -0.363818899269700 35.000000000000000
14.693205828629770 3.625541274907583 -0.407848152288788 38.000000000000000
14.676311684755868 3.648117328036033 -0.451850420260823 29.000000000000000
14.681797516254836 3.622932341146143 -0.495799314383556 24.000000000000000
14.656899500853898 3.643709061235111 -0.538908782925216 23.000000000000000
14.666087135595673 3.619343851356309 -0.582597786919927 31.000000000000000
14.672051664726080 3.646908186224305 -0.628519391856465 28.000000000000000
14.693845114898552 3.629349890727209 -0.672778746911802 26.000000000000000
14.702438686361466 3.604642456299661 -0.718716654037977 23.000000000000000
14.665330375098698 3.623348909688797 -0.759048625477704 21.000000000000000
13.999461720482271 3.432528418469019 -0.784954237254496 15.000000000000000
13.868750367298924 3.430044565550315 -0.816252660465718 17.000000000000000
13.877662292594769 3.412415431705753 -0.857012550974919 18.000000000000000
13.879402596596210 3.437395854283896 -0.900212913844229 18.000000000000000
13.887275085960866 3.413819200825092 -0.941563968091144 19.000000000000000
13.875101560494114 3.414966345202526 -1.190666247937014 22.000000000000000
13.327252980148245 3.305295299092737 -1.363399135468592 23.000000000000000
4.152757811170260 1.026611179893141 -0.508850435689841 0.000000000000000
11.145061605152916 2.739412705101795 -1.424062232209931 8.000000000000000
9.784417083337052 2.407796844286953 -1.566978547879030 10.000000000000000
3.035176536249739 0.744148744576229 -0.514842464013778 0.000000000000000
8.621172944029398 2.130402023051513 -1.626335089564951 6.000000000000000
11.248570731665319 2.736874954222412 2.778971509025399 22.000000000000000
11.599729821471886 2.814637660692462 2.220526879720656 15.000000000000000
15.013362328144074 3.657236940908422 -0.022574928629138 2.000000000000000
15.043586020112043 3.636693317205850 -0.068555107555715 10.000000000000000
23.948089812184655 5.853498758496787 -0.193631789145992 13.000000000000000
14.698581573740924 3.569813675339944 -0.143056559329461 49.000000000000000
14.702102695343539 3.597006997103840 -0.188374342167942 41.000000000000000
14.692611525617558 3.568379830746647 -0.231765322022737 38.000000000000000
14.680303276914612 3.592034161470920 -0.275522349644815 39.000000000000000
14.686244727350287 3.567025210311339 -0.319146409137853 38.000000000000000
14.689211431021397 3.593687915407855 -0.364580713870391 34.000000000000000
14.703755758802615 3.574839922986207 -0.408614539948652 35.000000000000000
14.690866141999969 3.598286356715438 -0.452871905660904 30.000000000000000
14.684552305622480 3.570662804299999 -0.496026427946470 23.000000000000000
14.679280105576359 3.595575667704068 -0.540511996183249 27.000000000000000
14.680582735305583 3.569545087933822 -0.583651681372480 31.000000000000000
14.682751708161174 3.596280191729601 -0.629280881557754 27.000000000000000
14.700490350875709 3.577845703220447 -0.673229837160823 26.000000000000000
14.712915269863707 3.553905572114189 -0.719482889139855 21.000000000000000
14.675891121198250 3.572748328895766 -0.759811997291197 19.000000000000000
14.309461288792448 3.470997433622866 -0.772049004039202 14.000000000000000
13.870885525447502 3.380614435349241 -0.816224602267376 15.000000000000000
13.879645018110651 3.362984634789353 -0.856965796689930 19.000000000000000
13.873694286544087 3.386346332850373 -0.899347307927411 20.000000000000000
13.889297617754787 3.364349751882511 -0.941469853613002 20.000000000000000
13.881021927628032 3.366331184456342 -1.190910620060284 21.000000000000000
13.429866090460253 3.278321862910740 -1.377223651491425 22.000000000000000
4.097826743484744 0.992687286156585 -0.494960871629328 0.000000000000000
11.148645632217258 2.700350505786542 -1.423969564446901 8.000000000000000
9.790712985240035 2.374231120877337 -1.567489049573811 9.000000000000000
9.342266273292713 2.260028668769372 -1.638873590131392 8.000000000000000
