# This PCD file was generated using the MATLAB® pcwrite function
# from Computer Vision Toolbox®.
# .PCD v.7 - Point Cloud Data file format
VERSION .7
FIELDS x y z intensity
SIZE 8 8 8 8
TYPE F F F F
COUNT 1 1 1 1
WIDTH 640
HEIGHT 1
VIEWPOINT 0 0 0 1 0 0 0
POINTS 640
DATA ascii
7.553653035754868 -1.214619094205840 -0.295717271698166 35.000000000000000
7.533156592017241 -1.225806539679962 -0.317590411925963 31.000000000000000
7.538810717702642 -1.216165472652850 -0.339951191709220 29.000000000000000
7.531349882513894 -1.212298625268694 -0.476611579617306 30.000000000000000
7.537003415024484 -1.211689947599140 -0.614739027170330 28.000000000000000
7.530497428513050 -1.233711523269577 -0.868876963147302 30.000000000000000
7.533126710329096 -1.232070026068662 -1.030198865947338 28.000000000000000
7.544942825180593 -1.233153319391214 -1.170409815291350 28.000000000000000
7.528104930323402 -1.226764096638398 -1.304251983902079 34.000000000000000
7.471879058170212 -1.210078763319370 -1.426563725345020 9.000000000000000
3.117819846501968 -0.503247540535746 -0.648443473252498 0.000000000000000
8.645469933605703 -1.439014491220686 1.739916519901692 23.000000000000000
8.654937192110919 -1.434425313948672 1.268887064490630 25.000000000000000
8.667613408585217 -1.430633749387137 0.797079850531447 26.000000000000000
8.663639547501729 -1.420343984245363 0.534078734785855 28.000000000000000
8.671386807310087 -1.437850859903762 0.349855593942346 27.000000000000000
8.664081526318020 -1.440607835916044 0.297209994435247 27.000000000000000
8.660207985545849 -1.426175989405696 0.271641294696037 24.000000000000000
8.668152436053447 -1.446376998392996 0.244454014655153 31.000000000000000
8.691174038582401 -1.453977403460531 0.217562626190618 29.000000000000000
8.683243645445916 -1.438392611083771 0.191335418319363 34.000000000000000
8.671331534529948 -1.422114673099877 0.165957466118954 29.000000000000000
8.671160000600024 -1.440235086523714 0.139085494743701 30.000000000000000
8.662962926455279 -1.424558931528292 0.113822185902761 28.000000000000000
8.682072567755274 -1.447536710474303 0.085839418663801 29.000000000000000
8.685272952208326 -1.450148338936852 0.059675185034113 33.000000000000000
8.696255285616441 -1.439298920673302 0.032445603802329 33.000000000000000
8.671652906810895 -1.438053616962542 -0.018792285339684 26.000000000000000
8.309373060991918 -1.383611341409743 -0.072981151505668 12.000000000000000
8.137324483540421 -1.344873188747041 -0.110401382112199 12.000000000000000
8.035986128279212 -1.336551922007846 -0.127890489722505 12.000000000000000
7.867604976704981 -1.298614227233482 -0.162275458258388 10.000000000000000
7.680613425347304 -1.266167119873799 -0.193665367345350 9.000000000000000
7.610323965926212 -1.264394516100083 -0.210419970518066 11.000000000000000
7.520667715850259 -1.257583835127292 -0.225824470152085 11.000000000000000
7.503520779055854 -1.241956830955139 -0.245633918317273 27.000000000000000
7.540059426226765 -1.240535141704012 -0.272597542728543 31.000000000000000
7.554466074964224 -1.242406701298073 -0.296930552601232 36.000000000000000
7.537788705699942 -1.254545753070889 -0.319253000058407 30.000000000000000
7.535804354009308 -1.242889513089786 -0.340770362839598 28.000000000000000
7.520664603715063 -1.236989573369030 -0.476484408952596 29.000000000000000
7.526322055766917 -1.236403634741134 -0.614543259341565 26.000000000000000
7.537134036440231 -1.237220571288876 -0.755055683119503 28.000000000000000
7.529975336664338 -1.258778520100041 -1.031361021937310 22.000000000000000
7.534207120526608 -1.257907303707952 -1.169943444336487 10.000000000000000
7.521165221008713 -1.252454462915853 -1.304632592285091 35.000000000000000
7.464991471997274 -1.235572630486537 -1.426941493915691 10.000000000000000
3.130900687534719 -0.520627866908377 -0.655187471467044 0.000000000000000
8.649463843078257 -1.471525916153649 1.741116202967497 23.000000000000000
8.651265030482165 -1.465021525128943 1.268787197673338 26.000000000000000
8.660066903629508 -1.460295360959481 0.796642199047958 24.000000000000000
8.663833835608605 -1.451949315590422 0.533655587066510 29.000000000000000
8.674983496594892 -1.452447161364834 0.376008750201606 30.000000000000000
8.656492169650919 -1.470255702278742 0.296773352349248 28.000000000000000
8.656566333794101 -1.456782539876869 0.271096117815918 24.000000000000000
8.668332905558383 -1.477993949050031 0.243775481658488 32.000000000000000
8.691118077748365 -1.472034443808983 0.190314575005768 33.000000000000000
8.667659256199327 -1.452761284088073 0.165362656215051 29.000000000000000
8.663564678325418 -1.469907273256315 0.138648534143247 31.000000000000000
8.663193096669470 -1.456143812915684 0.113025633510476 29.000000000000000
8.682236183261915 -1.479198565702664 0.085018738672258 29.000000000000000
8.685321226775162 -1.481839771616059 0.058826630661297 34.000000000000000
8.696362981345242 -1.471018669693844 0.031573484291335 32.000000000000000
8.680229311177085 -1.453603739391735 0.006802896192713 25.000000000000000
8.656314518839231 -1.465773028630945 -0.018750272788462 27.000000000000000
8.655512242104557 -1.451871138726265 -0.043967181124623 30.000000000000000
8.681804178722381 -1.476943128337727 -0.073210944361660 30.000000000000000
8.296962186180679 -1.398328744235425 -0.098339871809867 29.000000000000000
7.969533536504120 -1.336473548242367 -0.146662201050924 12.000000000000000
7.782466230745386 -1.304228831139891 -0.179377021756586 10.000000000000000
7.692833704418645 -1.297461356276710 -0.195840051309850 9.000000000000000
7.614856260886159 -1.293437712984041 -0.211910948282132 10.000000000000000
7.521387039715083 -1.285292126048688 -0.226965416512881 10.000000000000000
7.488922030928270 -1.265516845046793 -0.245227625537556 21.000000000000000
7.533181452815519 -1.266258452628790 -0.272976076949399 29.000000000000000
7.551328094181541 -1.269202223837969 -0.297729259527455 36.000000000000000
7.538465476042697 -1.282314560762948 -0.320489346174227 27.000000000000000
7.536542680107215 -1.270645687521920 -0.342028295837389 27.000000000000000
7.521401638601311 -1.264686409129112 -0.477880464891910 29.000000000000000
7.451182820318612 -1.271336618553676 -0.606072467712586 2.000000000000000
7.541635027228145 -1.265968187320219 -0.757374270259998 28.000000000000000
7.531169752333827 -1.261420999448173 -0.870662919739799 28.000000000000000
7.454265466239599 -1.260032339428669 -1.426340142164396 9.000000000000000
3.101947436994969 -0.520947132057216 -0.646127815297172 0.000000000000000
8.645657405227347 -1.502114649824641 1.741224487616314 23.000000000000000
8.655201986743021 -1.497600575335849 1.269361092914732 27.000000000000000
8.667907769880921 -1.493895569275502 0.796708384734588 25.000000000000000
8.656159176618416 -1.481590600543043 0.533216119163929 29.000000000000000
8.675048555787580 -1.484109765567712 0.375443283414235 31.000000000000000
8.656544062549258 -1.501864921979251 0.296140138404883 27.000000000000000
8.660562717735923 -1.489363582430620 0.270330796749616 25.000000000000000
8.664520919054098 -1.508647251366067 0.243218406657844 30.000000000000000
8.691222105748553 -1.485693279995534 0.216854925463963 29.000000000000000
8.687244929739432 -1.502771753577775 0.189728955162374 32.000000000000000
8.671620942172474 -1.485382590330641 0.164453338192782 27.000000000000000
8.667477669917263 -1.502530098625403 0.137704374308055 29.000000000000000
8.659431507828907 -1.486774351797916 0.112409189820153 28.000000000000000
8.682280517305140 -1.510887845651855 0.084197499720052 29.000000000000000
8.677515808901429 -1.511561236260825 0.058385788599224 32.000000000000000
8.707957006812205 -1.505746202968087 0.030052298836889 32.000000000000000
8.676430850192565 -1.484292537643796 0.006136721308251 26.000000000000000
8.656356473024767 -1.497373987485798 -0.019666019058730 28.000000000000000
8.655623588315766 -1.483454902349667 -0.044904744289417 29.000000000000000
8.681841831919261 -1.508626594316048 -0.074173183749778 30.000000000000000
8.553020544983207 -1.477003616400690 -0.091258595340576 32.000000000000000
8.156122047984521 -1.397061624532341 -0.138535204632272 36.000000000000000
7.790676618352137 -1.334895904887627 -0.181153185306271 11.000000000000000
7.697227346400324 -1.326806445606323 -0.197301834366961 11.000000000000000
7.619274342217508 -1.322525819013929 -0.213402752769130 11.000000000000000
7.474246509813844 -1.288998898955349 -0.244820349525533 20.000000000000000
7.530057667031451 -1.292980601529809 -0.273758563878290 22.000000000000000
7.548091109424576 -1.296000048627551 -0.298528151860062 33.000000000000000
7.573584449825196 -1.319477437185906 -0.325572969538809 2.000000000000000
7.537174941943708 -1.298420044069697 -0.343286667122617 14.000000000000000
7.537360612633974 -1.296515790435684 -0.481309315114359 5.000000000000000
7.432223846500731 -1.281405624085931 -1.422801287471974 10.000000000000000
3.068538722357599 -0.531211744263555 -0.637222733773564 0.000000000000000
8.645572943045574 -1.533705047059346 1.741877633683690 22.000000000000000
8.655155889966418 -1.529228961544050 1.269597262704461 26.000000000000000
8.660136756536083 -1.523557847126799 0.796270385859544 24.000000000000000
8.663864953731711 -1.515235644298198 0.532807669126944 28.000000000000000
8.674994309617214 -1.515806047822046 0.374877153131037 31.000000000000000
8.664216224737645 -1.535509629765127 0.295309276308089 27.000000000000000
8.664433042786074 -1.521996755915509 0.269564557249912 26.000000000000000
8.668336293221975 -1.541309917739664 0.242416741885518 31.000000000000000
8.683411135859334 -1.515435741240267 0.216413777234007 28.000000000000000
8.687127093262074 -1.534517682321717 0.188997443797187 32.000000000000000
8.671586788971149 -1.517057483558165 0.163700426648193 27.000000000000000
8.667396572963142 -1.534194368127192 0.136928693396711 30.000000000000000
8.663296351829977 -1.519398349958951 0.111430809166664 29.000000000000000
8.682205381061346 -1.542604109674517 0.083375707530323 30.000000000000000
8.707814971163076 -1.537560434391725 0.029178461699399 30.000000000000000
8.676386531264622 -1.515980168585290 0.005242453193847 27.000000000000000
8.656279171281252 -1.528995295189258 -0.020582229777794 29.000000000000000
8.659481757181009 -1.516059475810874 -0.046094134213213 28.000000000000000
8.689487532538367 -1.542339011946563 -0.075662914149779 30.000000000000000
8.684175159919947 -1.542738770496740 -0.101589274436008 31.000000000000000
8.663986311074355 -1.524171904002301 -0.126579477448053 31.000000000000000
7.818001333826469 -1.370833938552131 -0.184657936426611 19.000000000000000
7.720731162570574 -1.361425634153345 -0.200552234888996 17.000000000000000
7.638948376062174 -1.355861248794767 -0.216371931347834 13.000000000000000
7.533531550182221 -1.316148656993047 -0.229249866436757 11.000000000000000
7.471018059099864 -1.315537085360042 -0.245589124383097 18.000000000000000
7.526835063132570 -1.319698478000671 -0.274541149835490 28.000000000000000
7.514053297467542 -1.314412332778570 -0.296002844242319 1.000000000000000
7.980693398299343 -1.402587666568799 -1.418341805540274 11.000000000000000
7.440043775503083 -1.310849434293640 -1.427093989466049 10.000000000000000
3.028175593047845 -0.538118716567478 -0.625676324770450 0.000000000000000
8.656860924878933 -1.568367065494048 1.744164733802123 22.000000000000000
8.654990545871444 -1.560883931222222 1.269832877230464 26.000000000000000
8.656126572984013 -1.554211124299936 0.795958126784561 25.000000000000000
8.659833612125313 -1.545902803595919 0.532375289731960 29.000000000000000
8.678688150930975 -1.548547413880854 0.374247345983626 30.000000000000000
8.656289972816865 -1.565157413676577 0.294872131542297 26.000000000000000
8.664308936389320 -1.553670922553504 0.268907733354368 27.000000000000000
8.690959475701050 -1.549218828241550 0.215437636500559 29.000000000000000
8.690753865354035 -1.567312317258398 0.188119457053960 30.000000000000000
8.667567038951287 -1.547744975292730 0.163104515821723 26.000000000000000
8.667196037246001 -1.565891762453631 0.136152365728867 29.000000000000000
8.659303206120068 -1.550053694241079 0.110813675824788 30.000000000000000
8.678146721853697 -1.573330426714037 0.082746502927473 29.000000000000000
8.700513668658754 -1.549377494928990 0.056310098421448 29.000000000000000
8.699829777862385 -1.567359935634780 0.028737187237495 30.000000000000000
8.676222675092218 -1.547694442734521 0.004347628497053 26.000000000000000
8.656082576327989 -1.560649722337256 -0.021499086802045 29.000000000000000
8.670938438853968 -1.550736386658819 -0.047787457503130 27.000000000000000
8.689279030954166 -1.574102868493313 -0.076626641535963 29.000000000000000
8.683857857920870 -1.574508832031306 -0.102580586362816 31.000000000000000
8.663756689510969 -1.555854852265448 -0.127592442692657 31.000000000000000
8.682169948577087 -1.546930532536557 -0.154501424904562 30.000000000000000
8.677004197651868 -1.564036728033837 -0.181483417186824 25.000000000000000
7.549387974552799 -1.348167553912983 -0.231917220716230 13.000000000000000
7.517578651969443 -1.355846861214211 -0.251461246264369 11.000000000000000
7.550383332653856 -1.353773773426418 -0.278155805566986 1.000000000000000
8.227842860108291 -1.472916614517711 -1.177094515197671 4.000000000000000
7.976886677455697 -1.430862647809622 -1.419659652976835 12.000000000000000
7.429060419363135 -1.335182400662873 -1.426491237500735 10.000000000000000
2.999335135273121 -0.537653911394617 -0.616605431820785 0.000000000000000
2.340306520992246 -0.418470977745411 -0.713260641749317 0.000000000000000
8.656527746532564 -1.600060624628149 1.744816050283585 22.000000000000000
8.654705936625769 -1.592575980812654 1.270067790734505 25.000000000000000
8.652004147254923 -1.584874681362642 0.795645555892734 25.000000000000000
8.663418399140440 -1.578635292340326 0.531957406351370 29.000000000000000
8.686119143671837 -1.582373910451455 0.373553277157926 29.000000000000000
8.655983696078149 -1.596846397738290 0.294237257042201 27.000000000000000
8.660200768367776 -1.584345111419051 0.268360916604569 26.000000000000000
8.664292524383248 -1.571989882470703 0.241858954116209 32.000000000000000
8.690648324902400 -1.581021017748640 0.214728155800444 27.000000000000000
8.690392657704379 -1.599124082363712 0.187386642454668 30.000000000000000
8.671159953718767 -1.580497930692207 0.162192784633967 27.000000000000000
8.663015198492866 -1.596582306108957 0.135545217618454 29.000000000000000
8.666784436694007 -1.583782570515993 0.109652513504850 29.000000000000000
8.665448420226809 -1.571950284300900 0.057300207223298 30.000000000000000
8.699454683246749 -1.599199355362988 0.027862637858054 29.000000000000000
8.675939221418783 -1.579445925610578 0.003452100076168 25.000000000000000
8.651909062472111 -1.591299197143215 -0.022176213830644 29.000000000000000
8.659101287912328 -1.579383838304246 -0.047972355688697 27.000000000000000
8.681237330055030 -1.603836825733737 -0.077063193315360 29.000000000000000
8.659553465454573 -1.586531875004031 -0.128318767268851 31.000000000000000
8.685728040705076 -1.579721629423609 -0.155836611171962 29.000000000000000
8.657395341853746 -1.590641410325738 -0.180989234052111 26.000000000000000
8.668007831024125 -1.579686762578380 -0.207036497012304 29.000000000000000
8.685785389237738 -1.602728394295809 -0.236307261209591 27.000000000000000
8.693747876725752 -1.602219292950746 -0.954147530261855 30.000000000000000
8.691918327991203 -1.599681730180492 -1.086800393453013 27.000000000000000
8.238973087603444 -1.506169680203200 -1.181419074893529 8.000000000000000
7.961709597462352 -1.456046978975202 -1.418234679482977 23.000000000000000
7.425460196851925 -1.361565974810478 -1.427846965205180 10.000000000000000
3.019033295141056 -0.558052958701431 -0.625986448347333 0.000000000000000
2.319069258573197 -0.426998196301515 -0.706664231612520 0.000000000000000
8.608144013413012 -1.594047989647809 2.212239222054542 44.000000000000000
8.658147966935948 -1.625327784599477 1.270638501139618 25.000000000000000
8.647769132337707 -1.615526186362846 0.795332984181240 25.000000000000000
8.666876160596036 -1.611420561338786 0.531538578595261 29.000000000000000
8.681834279661212 -1.613143828907756 0.373048396630120 30.000000000000000
8.667134648436537 -1.631705089095579 0.293304307297035 26.000000000000000
8.663701853791999 -1.617097947317440 0.267592447624215 26.000000000000000
8.671724411891553 -1.605764032720661 0.240933206428777 29.000000000000000
8.686358011419863 -1.611804905113576 0.214152323636126 27.000000000000000
8.686054140531914 -1.629916477658966 0.186799534789096 28.000000000000000
8.674625686337988 -1.613292673300666 0.161280270349506 29.000000000000000
8.670292639246730 -1.630410758250797 0.134428155057193 29.000000000000000
8.670272896087713 -1.616553077498168 0.108671515087561 29.000000000000000
8.673975382405583 -1.604055877287173 0.082117145718674 29.000000000000000
8.668892193083273 -1.604728527485189 0.056245530056829 30.000000000000000
8.702813650903490 -1.632116052101082 0.026770533302806 28.000000000000000
8.687103379837623 -1.614329787721889 0.001870650464569 26.000000000000000
8.655330539111725 -1.624036350536045 -0.023334433713213 28.000000000000000
8.670297323205977 -1.614193761740541 -0.049667936001456 25.000000000000000
8.679567952413947 -1.605264363398231 -0.103297153766067 31.000000000000000
8.662938300098416 -1.619302505615742 -0.129620076024030 30.000000000000000
8.681455512112064 -1.610480238241180 -0.156574856855836 29.000000000000000
8.660798601570409 -1.623390589650384 -0.182358907784221 28.000000000000000
8.663770264213865 -1.610380149913023 -0.207795255915122 29.000000000000000
8.669937601410860 -1.630364840102878 -0.236074985779351 28.000000000000000
8.674878257851352 -1.633780605701855 -0.633667377938398 26.000000000000000
8.685445329490697 -1.634273587614192 -0.794028397921475 27.000000000000000
8.689313415559615 -1.633001465217337 -0.955233646942875 33.000000000000000
8.691276905743690 -1.631485259453783 -1.088646174703509 28.000000000000000
8.242401718958524 -1.537448214066046 -1.184181618194989 8.000000000000000
7.972712282282561 -1.488454386696628 -1.423210316298634 11.000000000000000
7.410574233741452 -1.384750895520273 -1.426263581096588 10.000000000000000
2.358697184188885 -0.437527909449198 -0.725345998240100 0.000000000000000
0.255553429129850 -0.048628297830849 0.053016482038808 0.000000000000000
8.661462886241578 -1.658131691867560 1.271208283465189 26.000000000000000
8.658842904731170 -1.650411143719577 0.795519965620509 24.000000000000000
8.670206574154790 -1.644258129128747 0.531118812594890 29.000000000000000
8.677436498812556 -1.643912080581526 0.372543365260961 30.000000000000000
8.655011674499466 -1.660301032751185 0.292965889056388 27.000000000000000
8.663218506690454 -1.648849918538637 0.266933997402434 26.000000000000000
8.675162777071241 -1.638566108416239 0.240129030550771 28.000000000000000
8.678099377638812 -1.641529647074655 0.213710735680080 28.000000000000000
8.685456027650016 -1.661765332398989 0.186065833653539 30.000000000000000
8.677964039913540 -1.646139719227815 0.160366824696167 28.000000000000000
8.673582040103117 -1.663258390255834 0.133479893164088 26.000000000000000
8.662069095478062 -1.646220975736082 0.108234632320549 29.000000000000000
8.673547893908770 -1.635816895437689 0.081294207644104 28.000000000000000
8.664503162487856 -1.635447599017258 0.055599863980455 30.000000000000000
8.698343437981100 -1.662958432838010 0.026111854198935 28.000000000000000
8.686568810516315 -1.646161699191712 0.000973605900822 25.000000000000000
8.666324869987656 -1.658941460381545 -0.024974911305261 26.000000000000000
8.650539013815951 -1.640712299960796 -0.049348582061192 29.000000000000000
8.692355025609830 -1.638743023548439 -0.078819674400610 29.000000000000000
8.682862980523934 -1.638125356097472 -0.104564849942693 31.000000000000000
8.662349119343185 -1.651061917598629 -0.130634671780710 29.000000000000000
8.680918103343636 -1.642287656863513 -0.157612305481841 31.000000000000000
8.656383342760586 -1.654080405657215 -0.183107359298827 27.000000000000000
8.667113957607066 -1.643166779887100 -0.209198965102445 29.000000000000000
8.673221579583643 -1.663188079617026 -0.237514539420021 26.000000000000000
8.683135759634522 -1.636143219254624 -0.263516001669794 27.000000000000000
8.689066695592620 -1.656070290044269 -0.291803663775063 28.000000000000000
8.672354784904355 -1.662842201399926 -0.422770726414791 30.000000000000000
8.678501144211188 -1.650822388358876 -0.449961288202929 29.000000000000000
8.684674803581091 -1.638714964376838 -0.475755870765696 28.000000000000000
8.688542971434936 -1.667147822068873 -0.796200137687043 23.000000000000000
8.692377462486029 -1.665877369325809 -0.957612726442506 33.000000000000000
8.686718610094074 -1.662268197856701 -1.089789302010089 32.000000000000000
8.238150307628253 -1.566672490092930 -1.185380986842393 6.000000000000000
7.961093077408676 -1.514627694068416 -1.422699386084231 11.000000000000000
7.406789862061024 -1.411095665196751 -1.427619041582633 10.000000000000000
2.989022794110280 -0.568756924412455 -0.618384642252808 0.000000000000000
2.334133746998556 -0.444475291775760 -0.717041365484437 0.000000000000000
0.238338141574813 -0.046518243291896 0.054675792208782 0.000000000000000
8.660811308651773 -1.689915395860169 1.271441346619846 26.000000000000000
8.650516430156918 -1.680040880227022 0.795081588929530 24.000000000000000
8.665702816114477 -1.675002791673137 0.530684606560318 27.000000000000000
8.680631884781951 -1.676825154483527 0.371910355670061 29.000000000000000
8.658761686137421 -1.679573354431533 0.266385979965537 26.000000000000000
8.670762936779830 -1.669309774238084 0.239569825960700 28.000000000000000
8.681290092670249 -1.674440301984284 0.212865592197659 27.000000000000000
8.688587106993008 -1.694714976698826 0.185184895820377 30.000000000000000
8.681174693827646 -1.679038585432803 0.159452453810268 29.000000000000000
8.665313959370025 -1.679068606216784 0.107252196333511 30.000000000000000
8.665294410062250 -1.665495951495494 0.080858084559819 29.000000000000000
8.667699383879730 -1.668305070401349 0.054543682449537 30.000000000000000
8.701453763249965 -1.695947128868980 0.025018348762553 28.000000000000000
8.654098818627252 -1.687523719896905 -0.025171919017586 28.000000000000000
8.661480657404585 -1.675639644464226 -0.051046182868864 28.000000000000000
8.691782541489653 -1.670597065219155 -0.079785201707610 29.000000000000000
8.674494692905460 -1.667839094869329 -0.105006448453002 31.000000000000000
8.661639721071285 -1.682845928216953 -0.131649799597392 30.000000000000000
8.680260365362811 -1.674119864209132 -0.158650286375108 29.000000000000000
8.651855381567573 -1.684768044114197 -0.183855949010174 26.000000000000000
8.666487073455309 -1.674957566998959 -0.210281171636285 28.000000000000000
8.682447849966321 -1.667986661533661 -0.264649230210071 28.000000000000000
8.692158871402768 -1.689011802125325 -0.293318322028739 29.000000000000000
8.687302480489931 -1.673803673998517 -0.318315808613237 29.000000000000000
8.662288405273648 -1.685338785576544 -0.343657611086500 29.000000000000000
8.689709741838263 -1.697435620334311 -0.399552338479282 30.000000000000000
8.673922103180450 -1.681584477180476 -0.450829462306087 28.000000000000000
8.668660670060252 -1.666314687668031 -0.475317461841584 27.000000000000000
8.678012336582867 -1.666628776436013 -0.635631934492667 24.000000000000000
8.691511586149193 -1.697742270586946 -0.959346104622999 31.000000000000000
8.689633073684730 -1.695164123462824 -1.092339297906289 30.000000000000000
8.237566414634189 -1.596960925915770 -1.187362727284170 5.000000000000000
7.941895965027197 -1.538601803905127 -1.420357961309567 12.000000000000000
7.395464399907037 -1.435259855793298 -1.427014427211621 10.000000000000000
8.658625671852205 -1.696327552192326 1.747311306603264 22.000000000000000
8.660039475734662 -1.721723441992378 1.271673883744349 25.000000000000000
8.645932569210906 -1.710727008482838 0.794768000100835 26.000000000000000
8.664935613582166 -1.706829707779423 0.530256833059191 28.000000000000000
8.676000608310073 -1.707615741397856 0.371404646714231 31.000000000000000
8.665900291357561 -1.695290556083101 0.292030701806574 25.000000000000000
8.661891454506145 -1.712441748141519 0.265615336674104 26.000000000000000
8.662398529863012 -1.698979291340720 0.239133670668337 28.000000000000000
8.680504841216342 -1.706315677345600 0.212154341021530 29.000000000000000
8.683898044728881 -1.725536448525506 0.184596838298872 30.000000000000000
8.680409549509687 -1.710907355869061 0.158695700624816 26.000000000000000
8.680593223274595 -1.697230958773456 0.132360400240099 25.000000000000000
8.664583352418818 -1.710875931886584 0.106451095798349 31.000000000000000
8.668483281195382 -1.698357054982836 0.079840475972557 26.000000000000000
8.674612924012534 -1.702294157075038 0.053281239263737 29.000000000000000
8.696749457672531 -1.726811244657188 0.024359003324654 30.000000000000000
8.677448745902604 -1.707740493647940 -0.000363883047671 25.000000000000000
8.664830174323054 -1.722551827081691 -0.026814530855922 29.000000000000000
8.656903054351396 -1.706352670256940 -0.051735420011993 29.000000000000000
8.691089543170779 -1.702475783770012 -0.080751252199212 29.000000000000000
8.677545134772828 -1.700762547719883 -0.106275408431142 30.000000000000000
8.668488107830225 -1.716825234326247 -0.133241399538412 30.000000000000000
8.675641579592964 -1.704899104972025 -0.159389347761504 30.000000000000000
8.654890853627100 -1.717611480664711 -0.185227508613064 27.000000000000000
8.661900232978571 -1.705685348082877 -0.211040929759158 29.000000000000000
8.672537105572097 -1.694996912864102 -0.238620257615746 29.000000000000000
8.673966496021940 -1.697696140649832 -0.265090890909882 28.000000000000000
8.691288902104017 -1.720921026452569 -0.294475788350381 30.000000000000000
8.671166225961420 -1.701380271225617 -0.318016772203275 27.000000000000000
8.669129617626410 -1.719290259170219 -0.345621549911524 27.000000000000000
8.671892006070058 -1.706177306894759 -0.370838541529061 33.000000000000000
8.683034876509156 -1.697892072887782 -0.425291557063480 28.000000000000000
8.669230056319584 -1.712343764161105 -0.451697769921549 27.000000000000000
8.671698943340514 -1.699190995696231 -0.477074117887156 28.000000000000000
8.684839477840553 -1.700596404957707 -0.638106073657836 25.000000000000000
8.687700650545466 -1.699007432756574 -0.797795231495166 23.000000000000000
8.699997751913489 -1.730252030600344 -1.096297312206803 29.000000000000000
8.236867230322011 -1.627266828310105 -1.189344901752275 6.000000000000000
7.945067678248257 -1.568970813415369 -1.423505743853176 12.000000000000000
7.398928016550931 -1.463783716742984 -1.430330387554757 11.000000000000000
2.962439768847975 -0.580651750794111 -0.612096749697484 0.000000000000000
2.315974024854457 -0.454502923795900 -0.712152538272489 0.000000000000000
8.650184624922133 -1.725958705419384 1.746872730594400 23.000000000000000
8.648924039311684 -1.743608502674231 0.794702957165612 26.000000000000000
8.671739178304318 -1.740881300448894 0.529841225505025 27.000000000000000
8.675101663715425 -1.739502639250642 0.370834509231760 31.000000000000000
8.665102449421537 -1.727113412481920 0.291393197128587 26.000000000000000
8.657201255714087 -1.743173867769439 0.265066844121229 25.000000000000000
8.665472500278121 -1.731875942088760 0.238327633542160 28.000000000000000
8.675754781122549 -1.737117204897782 0.211577547434302 29.000000000000000
8.682937818614793 -1.757457814759572 0.183861555846356 29.000000000000000
8.679523678905154 -1.742800121574696 0.157938425360886 28.000000000000000
8.679777154221878 -1.729101452018526 0.131580704733422 28.000000000000000
8.663732247079228 -1.742707371174507 0.105649476997723 30.000000000000000
8.671544227378801 -1.731269392671326 0.078821960221634 25.000000000000000
8.669866335142505 -1.733072916180419 0.052634173583649 29.000000000000000
8.688092467504378 -1.756570998474587 0.023917263448272 28.000000000000000
8.676560003239009 -1.739618722091372 -0.001262118579267 24.000000000000000
8.659893260620761 -1.739242889120785 -0.052930112467780 27.000000000000000
8.686433994717412 -1.733297016829258 -0.081453185559184 29.000000000000000
8.668954453299270 -1.730455146946039 -0.106717053187247 29.000000000000000
8.675200608769821 -1.750881829094840 -0.134834301359387 29.000000000000000
8.678583185350830 -1.737856859774922 -0.160727821588074 30.000000000000000
8.657798347785306 -1.750512107217052 -0.186600061181188 27.000000000000000
8.661036215187577 -1.737497953412710 -0.212123801460510 28.000000000000000
8.664058100838517 -1.724671326358745 -0.239056613614525 27.000000000000000
8.673044882557560 -1.729558572849527 -0.266224751913483 28.000000000000000
8.686467936853932 -1.751757342253740 -0.295275471105857 28.000000000000000
8.670264997227228 -1.733226159109027 -0.319195452270955 30.000000000000000
8.668177698758484 -1.751139017133539 -0.346823357576637 26.000000000000000
8.686326600413761 -1.742358845783077 -0.373633502479229 28.000000000000000
8.681214151325461 -1.727169586912428 -0.399989552641657 29.000000000000000
8.674439259911669 -1.727602995112036 -0.425733412991604 28.000000000000000
8.668248676062351 -1.744193411197813 -0.452994391185410 29.000000000000000
8.666959524407483 -1.729947311228010 -0.477952853490434 27.000000000000000
8.683896707031673 -1.732476961338556 -0.639563773498648 25.000000000000000
8.686737656688315 -1.730890510305205 -0.799390839714696 24.000000000000000
8.682928481846576 -1.727481286792823 -0.959786397340736 28.000000000000000
8.232285149146474 -1.656510741620963 -1.190545050786143 6.000000000000000
7.940646611305898 -1.597198890940181 -1.424823862208853 12.000000000000000
7.383708754017303 -1.486778123165632 -1.428744801213682 8.000000000000000
2.314862492444435 -0.463688330807383 -0.713982311234677 0.000000000000000
8.656872584359606 -1.759940743319344 1.748609100029543 23.000000000000000
8.662978733066947 -1.754653990176418 1.272241308323282 25.000000000000000
8.647947040199808 -1.775421443998514 0.794512947257080 24.000000000000000
8.666881093433876 -1.771668857960236 0.529405860873343 27.000000000000000
8.681765018208182 -1.773638340066437 0.370134869445160 30.000000000000000
8.664184064906404 -1.758966746341255 0.290755086768676 25.000000000000000
8.652398100854347 -1.773902854335546 0.264518227637029 26.000000000000000
8.656885994808491 -1.761526624031230 0.237891416393564 27.000000000000000
8.686252228628952 -1.772360129393867 0.210459905055602 30.000000000000000
8.674676708763480 -1.773601564439971 0.157339646400531 26.000000000000000
8.671156486910879 -1.758802026385744 0.131141807532702 25.000000000000000
8.658920569767412 -1.773457085199027 0.105029804548320 30.000000000000000
8.666793593948238 -1.762038087136652 0.078191145002170 26.000000000000000
8.672681745315071 -1.766067090632632 0.051575462227233 29.000000000000000
8.683165185785061 -1.787414917963790 0.023257861358659 29.000000000000000
8.679387424747777 -1.772620213294175 -0.002390271465811 25.000000000000000
8.663902053432917 -1.754396250072041 -0.027735163184035 27.000000000000000
8.655082243258581 -1.769976810833164 -0.053619990576295 28.000000000000000
8.685503244721632 -1.765210340897262 -0.082420071028858 29.000000000000000
8.671759597062016 -1.763439270621479 -0.107987253725447 30.000000000000000
8.674113996439631 -1.782790485293376 -0.135851771190365 28.000000000000000
8.677563315377329 -1.769754142618304 -0.161767278856581 31.000000000000000
8.660577474546260 -1.783462824785399 -0.187973512600764 27.000000000000000
8.656219702566629 -1.768233114232334 -0.212884004623998 28.000000000000000
8.666973400936403 -1.757594094867322 -0.240498105692721 27.000000000000000
8.668173677669328 -1.760339600958780 -0.267012706042725 30.000000000000000
8.685359815636094 -1.783699807525988 -0.296433773162755 29.000000000000000
8.669242956708940 -1.765088831518550 -0.320374560809856 30.000000000000000
8.670929849856911 -1.784117590359259 -0.348407623198769 27.000000000000000
8.685305374746166 -1.774277491498836 -0.374858036278662 30.000000000000000
8.684094708288960 -1.760143626514747 -0.401641879451420 27.000000000000000
8.677205988031734 -1.760589492729274 -0.427423992078324 29.000000000000000
8.667146492425424 -1.776066123885158 -0.454291524225586 27.000000000000000
8.669748938142634 -1.762890789664208 -0.479710843741259 27.000000000000000
8.682833022021848 -1.764374044007102 -0.641021898152725 26.000000000000000
8.685653752144626 -1.762789975041159 -0.800986870765922 22.000000000000000
8.700800962905609 -1.764798482248779 -0.964755281114633 30.000000000000000
8.714004139985066 -1.766519738626656 -1.100960653461978 30.000000000000000
7.936121227793898 -1.625424395093546 -1.426142103036187 12.000000000000000
7.375835353666949 -1.511951371207086 -1.429119562611787 11.000000000000000
3.002412946844430 -0.610725741385064 -0.629396893678831 0.000000000000000
2.280706052634721 -0.464894366911089 -0.700538279384255 3.000000000000000
8.652010542686183 -1.790667302022516 1.748713835133678 22.000000000000000
8.661961915578280 -1.786516189427431 1.272472700818925 25.000000000000000
8.650685706328902 -1.808390045349871 0.794446289216494 25.000000000000000
8.673423500050287 -1.805834169176418 0.528988236019827 28.000000000000000
8.676778604182271 -1.804472574458554 0.369627990904741 31.000000000000000
8.663144879468970 -1.790843514511149 0.290116464391618 25.000000000000000
8.658996638003922 -1.807989744495568 0.263633737620301 26.000000000000000
8.667395338354236 -1.796708873441396 0.236836627703704 26.000000000000000
8.681260063584279 -1.803208147738310 0.209882076530273 29.000000000000000
8.678018321311093 -1.788286023028999 0.183273049134294 28.000000000000000
8.669716541644906 -1.804405904545902 0.156740661242977 26.000000000000000
8.673944542968080 -1.791813031804868 0.130190489129844 26.000000000000000
8.657831831334336 -1.805322009747680 0.104227361095829 30.000000000000000
8.661929854535130 -1.792803421042827 0.077560210531560 27.000000000000000
8.679202017545164 -1.800233842825566 0.050309890104130 29.000000000000000
8.674419698675596 -1.803438666061385 -0.003060046429063 25.000000000000000
8.666688005152759 -1.787375623696445 -0.028897751855391 26.000000000000000
8.657823409682399 -1.802940657836228 -0.054816089421387 29.000000000000000
8.676783127487445 -1.794929985137315 -0.082857418326313 27.000000000000000
8.678265831331395 -1.797593729553451 -0.109534828169517 31.000000000000000
8.669078733279752 -1.813589568674210 -0.136581106850200 26.000000000000000
8.672593480836557 -1.800563561659082 -0.162507300715337 30.000000000000000
8.658946174421953 -1.801193402031224 -0.214291071144842 29.000000000000000
8.665930905265677 -1.789460884293053 -0.241605163542223 27.000000000000000
8.674663916836559 -1.794471105089237 -0.268840643018907 31.000000000000000
8.684130396440843 -1.815658299047531 -0.297592498101527 29.000000000000000
8.671923700891163 -1.798095932618519 -0.321924341435036 30.000000000000000
8.665911324725622 -1.814905698353201 -0.349228492699327 27.000000000000000
8.680340841623819 -1.805107418829174 -0.375689757958929 28.000000000000000
8.679199872460304 -1.790960938736784 -0.402484459004325 28.000000000000000
8.672206491103982 -1.791394947365056 -0.428282423832761 29.000000000000000
8.669739201636938 -1.809075072734284 -0.456017654415637 28.000000000000000
8.668592715628970 -1.794778507863452 -0.481030013157303 28.000000000000000
8.696886011690390 -1.800735003332353 -0.644517627811180 25.000000000000000
8.695850724010189 -1.798033764678848 -0.804317892855163 26.000000000000000
8.764001398101653 -1.815490237135755 -0.977492894288218 31.000000000000000
8.784581286750658 -1.819385739922822 -1.116185310248240 32.000000000000000
8.472233179639671 -1.757607272949492 -1.242627924992558 19.000000000000000
7.924033953518499 -1.651403867441669 -1.425629149055093 11.000000000000000
7.367872295063123 -1.537101423669423 -1.429494115621584 10.000000000000000
2.282710585579889 -0.475719681551727 -0.704077451636489 9.000000000000000
8.650836553921836 -1.822518240157571 1.749361652769501 23.000000000000000
8.660824370194943 -1.818407937498407 1.272703499531103 25.000000000000000
8.657127928800126 -1.842547440247639 0.794502489500825 24.000000000000000
8.668327095853391 -1.836654029356037 0.528552043296379 29.000000000000000
8.671678772249932 -1.835302612724249 0.369120995577034 31.000000000000000
8.658148548945400 -1.821614668280823 0.289577684077616 25.000000000000000
8.653955642166959 -1.838751419787823 0.263084307048496 27.000000000000000
8.662415109133635 -1.827493831718005 0.236275993215263 25.000000000000000
8.672322112348754 -1.832913970488715 0.209439703554226 29.000000000000000
8.672985367013965 -1.819103670502940 0.182684507446072 29.000000000000000
8.668475329780771 -1.836341188161867 0.155982244267083 25.000000000000000
8.668935411957174 -1.822619834963255 0.129580458150782 26.000000000000000
8.656622116146863 -1.837209716141000 0.103424416924482 30.000000000000000
8.664620788555375 -1.825815170249609 0.076539757671100 25.000000000000000
8.674096142467359 -1.831068216210369 0.049661477981736 29.000000000000000
8.681955862317642 -1.819376179384793 0.022380299561369 27.000000000000000
8.673167867088953 -1.835386087520071 -0.003959812124408 25.000000000000000
8.665514240463184 -1.819279700073970 -0.029819594466420 28.000000000000000
8.652778461927866 -1.833693736023712 -0.055506585435113 28.000000000000000
8.683278594844287 -1.829108779897830 -0.084355381163031 27.000000000000000
8.669331458431859 -1.827288269471474 -0.109977034252016 33.000000000000000
8.667753698262253 -1.845529928003437 -0.137599392846050 28.000000000000000
8.678985497401746 -1.834761304572911 -0.164148111715039 30.000000000000000
8.667054449399483 -1.817585778149272 -0.189659901673112 26.000000000000000
8.657719804258916 -1.833075348278424 -0.215375457364076 28.000000000000000
8.664767505436675 -1.821352772085920 -0.242712748742106 28.000000000000000
8.673375393810066 -1.826415549733568 -0.269976236038788 31.000000000000000
8.678961329655140 -1.846509109171091 -0.298392921986848 29.000000000000000
8.666836103675015 -1.828895812980139 -0.322734468378875 30.000000000000000
8.376366982771637 -1.779096923006410 -0.347038414123401 45.000000000000000
8.679081229566364 -1.837058165720922 -0.376915098142459 29.000000000000000
8.678011244169538 -1.822893189973740 -0.403732689803185 29.000000000000000
8.670908463925803 -1.823324670019808 -0.429557689694342 30.000000000000000
8.660766973424245 -1.838738774419646 -0.456458450106413 28.000000000000000
8.674941764857813 -1.828939104690814 -0.483229675608349 28.000000000000000
8.699369988583783 -1.833858763464672 -0.646487063782489 28.000000000000000
8.789430467731181 -1.857981876800924 -0.820373766031259 26.000000000000000
8.785294057524379 -1.854396107810334 -0.983116403370044 31.000000000000000
8.786892101114558 -1.852780876458773 -1.118743273199890 34.000000000000000
8.647647960055702 -1.841391177491698 -1.281424781742628 25.000000000000000
7.915583013715224 -1.678462524094563 -1.426031394130351 11.000000000000000
7.356117752232738 -1.561064192098328 -1.428887311282616 10.000000000000000
2.963903130272868 -0.629131718471122 -0.620621948249142 0.000000000000000
2.284663017067650 -0.486574063233586 -0.707617115526568 9.000000000000000
8.657135699074054 -1.856661359893661 1.751095155611130 24.000000000000000
8.659565823947002 -1.850322223483317 1.272933795887817 26.000000000000000
8.655776394824361 -1.874475357083750 0.794310293447769 24.000000000000000
8.663117191759056 -1.867462709982846 0.528115820575845 28.000000000000000
8.674124846733763 -1.868427089063459 0.368483813300995 30.000000000000000
8.656871207213921 -1.853523571252712 0.288938249999219 26.000000000000000
8.652631663924756 -1.870649353926865 0.262422544404094 26.000000000000000
8.661153964845543 -1.859411540420083 0.235591123082791 25.000000000000000
8.674763516722559 -1.866035852743160 0.208590389175178 29.000000000000000
8.671669396975991 -1.851066747935779 0.181948086659730 31.000000000000000
8.663284515479287 -1.867150268412427 0.155382841005123 26.000000000000000
8.667643122570832 -1.854562686392551 0.128799031291539 24.000000000000000
8.651463086651731 -1.867967606036295 0.102804100900706 30.000000000000000
8.659522820605584 -1.856599312210083 0.075908214434385 25.000000000000000
8.668876714420938 -1.861891342244633 0.049013036731532 29.000000000000000
8.684452706038908 -1.852507687367012 0.021283829851798 29.000000000000000
8.671794658953884 -1.867355672289005 -0.004860075631203 24.000000000000000
8.668046277239414 -1.852344562932121 -0.030983770315583 27.000000000000000
8.651444946815975 -1.865579262879894 -0.056450545365504 30.000000000000000
8.678158000761192 -1.859955535826774 -0.085058356743219 26.000000000000000
8.675579194374713 -1.861534115039355 -0.111526317977307 32.000000000000000
8.673777011174774 -1.865602008290924 -0.164888938620643 30.000000000000000
8.669571944129421 -1.850648560884959 -0.191035326145976 25.000000000000000
8.667832513244120 -1.868396127870682 -0.217431535792093 28.000000000000000
8.667304507031655 -1.854397695633338 -0.244156512195168 28.000000000000000
8.660514585288212 -1.854941015720499 -0.270071214770609 30.000000000000000
8.282775680008161 -1.777306587027219 -0.288030307119827 40.000000000000000
8.661635163879307 -1.859691075724431 -0.323544702717915 30.000000000000000
8.660779527197100 -1.845689434525536 -0.350049471150780 26.000000000000000
8.549488091587506 -1.849090706616199 -0.392835954961554 33.000000000000000
8.669489042198293 -1.855269670238229 -0.430833372727126 28.000000000000000
8.663113331532045 -1.871811539720554 -0.458185853249529 27.000000000000000
8.673535293355023 -1.860897798806381 -0.484550228082179 27.000000000000000
8.694121440572637 -1.864760414698139 -0.647438097665392 27.000000000000000
8.787872276233532 -1.890325244783408 -0.821976779464561 26.000000000000000
8.791286007561355 -1.888971650137858 -0.986152430215488 30.000000000000000
8.796619898189224 -1.888471325135367 -1.122710764699701 31.000000000000000
8.631026626653657 -1.868711919823021 -1.280297313333793 23.000000000000000
8.458980610908343 -1.814605206112113 -1.400626126842768 29.000000000000000
7.355375194900843 -1.588476259259341 -1.431223595312517 10.000000000000000
8.648126043809885 -1.886286432908747 1.750655799870233 23.000000000000000
8.654370228648506 -1.881106587631141 1.272828966082641 25.000000000000000
8.633762795745692 -1.870191060434767 0.952778520185176 25.000000000000000
8.661619820924479 -1.899440272210207 0.527684776356127 28.000000000000000
8.672615651527222 -1.900440412735779 0.367910934340993 30.000000000000000
8.655472591787635 -1.885454572235627 0.288298321543710 26.000000000000000
8.651186471921317 -1.902575806123707 0.261760209492235 26.000000000000000
8.652114827568983 -1.889046399661851 0.235154461514112 31.000000000000000
8.673251059239819 -1.898048033557419 0.207876067526956 28.000000000000000
8.674058233688202 -1.884208343034178 0.181063290936664 31.000000000000000
8.661804512166666 -1.899116188897118 0.154623627541817 25.000000000000000
8.670055606298035 -1.887681270680204 0.127845630940952 26.000000000000000
8.650014932629595 -1.899886167698149 0.102000365779930 28.000000000000000
8.661963419253121 -1.889680306486284 0.074886417674292 25.000000000000000
8.671187189775205 -1.895041739238859 0.047951324432259 30.000000000000000
8.682996456215475 -1.884533111347416 0.020404988745904 32.000000000000000
8.670299906478023 -1.899346968728256 -0.005760830986413 24.000000000000000
8.658980070750031 -1.882003053963395 -0.031422741859494 28.000000000000000
8.646169595254925 -1.896336407237847 -0.057141443565718 26.000000000000000
8.676746210924691 -1.891946191234400 -0.086027035938225 25.000000000000000
8.674053577910563 -1.893540207147332 -0.112522850800949 32.000000000000000
8.662487777139736 -1.876339740162688 -0.138329226440676 27.000000000000000
8.664637952920081 -1.895280167182278 -0.165329253426056 31.000000000000000
8.660504391083784 -1.880311979061229 -0.191474331088182 26.000000000000000
8.666351644265298 -1.900362040052020 -0.218517483695609 27.000000000000000
8.352648507454248 -1.825145986618196 -0.244551641173564 46.000000000000000
8.582737112251062 -1.863727049465233 -0.264263099253203 32.000000000000000
8.319630914676319 -1.819637614152143 -0.292901128788727 36.000000000000000
8.267303238731431 -1.808387288197626 -0.338426555015256 37.000000000000000
8.331038612413579 -1.814721032226174 -0.370932134859684 42.000000000000000
8.660334644817457 -1.884932356920370 -0.431275414259186 28.000000000000000
8.669134084037852 -1.906092297122836 -0.460343290703408 28.000000000000000
8.675812498372139 -1.894029801671952 -0.486311652855822 28.000000000000000
8.696354176246983 -1.897953759619643 -0.649408898764615 27.000000000000000
8.786191263104023 -1.922689441697983 -0.823580274173887 27.000000000000000
8.785802932381614 -1.920198509457048 -0.987246419628418 29.000000000000000
8.806201091668399 -1.924261341215203 -1.126679885415534 27.000000000000000
8.446219076641807 -1.842390726042279 -1.400205658837868 32.000000000000000
7.347139475248822 -1.613549965177675 -1.431597504612054 11.000000000000000
2.739659587255997 -0.602780665689725 -0.547718211573308 0.000000000000000
2.272627536283056 -0.499559313636500 -0.706142561196561 16.000000000000000
8.650378182707906 -1.919364238480970 1.751844846706833 22.000000000000000
8.652873193966876 -1.913051281015292 1.273058469738185 26.000000000000000
8.654303497140660 -1.906425090591046 0.794117604408682 23.000000000000000
8.656178998563062 -1.930258474910787 0.527248069776988 27.000000000000000
8.674806230122901 -1.933654509927152 0.367272094611564 30.000000000000000
8.650128551560273 -1.916249496542843 0.287758703186811 25.000000000000000
8.645797629321930 -1.933349758205271 0.261210085750390 26.000000000000000
8.654443338688823 -1.922147111421769 0.234344461546453 30.000000000000000
8.679257132678016 -1.932437528090745 0.206888937211229 29.000000000000000
8.668672842785316 -1.915058296386004 0.180473757968448 31.000000000000000
8.660202886242455 -1.931103442437156 0.153863927283145 25.000000000000000
8.664694323633404 -1.918525028414916 0.127234569401229 27.000000000000000
8.659905253841965 -1.935342914742058 0.100645860988965 29.000000000000000
8.645165078358090 -1.916989259323270 0.074840095235228 27.000000000000000
8.669550192630417 -1.927063814462542 0.047095468046733 30.000000000000000
8.681418410708767 -1.916579944152360 0.019525656941931 31.000000000000000
8.668683441148884 -1.931359523991897 -0.006662072212535 24.000000000000000
8.661265377977191 -1.915135821881840 -0.032588225535700 27.000000000000000
8.648414126143438 -1.929428618165485 -0.058340090247486 29.000000000000000
8.671394503801039 -1.922796457783441 -0.086730401853838 26.000000000000000
8.680033738829344 -1.927915379181808 -0.114074373822944 31.000000000000000
8.657108402605905 -1.907144311832184 -0.139059160688240 27.000000000000000
8.670645336957898 -1.929609562561087 -0.166972509610516 29.000000000000000
8.662775156463233 -1.913442525243784 -0.192851061213993 27.000000000000000
8.664749167553717 -1.932349221681758 -0.219603912366997 28.000000000000000
8.347411585648853 -1.854887901530958 -0.245325437435506 47.000000000000000
8.327830867020811 -1.835506161518961 -0.269161443247718 41.000000000000000
8.306910574658151 -1.838522633011728 -0.369727249566647 32.000000000000000
8.261852201497287 -1.825987033387008 -0.390408835846164 45.000000000000000
8.647272195233418 -1.913394436022749 -0.431299861094845 29.000000000000000
8.576221055786847 -1.909938206270933 -0.451338837720474 27.000000000000000
8.674158797678061 -1.926044277085197 -0.487633369857983 26.000000000000000
8.690870007136581 -1.928871007006752 -0.650360512064114 26.000000000000000
