# This PCD file was generated using the MATLAB® pcwrite function
# from Computer Vision Toolbox®.
# .PCD v.7 - Point Cloud Data file format
VERSION .7
FIELDS x y z intensity
SIZE 8 8 8 8
TYPE F F F F
COUNT 1 1 1 1
WIDTH 635
HEIGHT 1
VIEWPOINT 0 0 0 1 0 0 0
POINTS 635
DATA ascii
20.140113292611044 -3.248484201111737 0.137314585075237 56.000000000000000
20.145475523653214 -3.286054146250841 0.076076456549106 52.000000000000000
20.132357831519119 -3.247820840795484 0.015587783278537 50.000000000000000
20.137393705339932 -3.285060627810509 -0.045315237967159 45.000000000000000
20.159336269849188 -3.253722745293757 -0.106775267861095 45.000000000000000
20.164936809256243 -3.283023403898007 -0.165108045202470 58.000000000000000
20.143345374527861 -3.243163140075602 -0.225518182574920 54.000000000000000
20.163359571013050 -3.283533656097816 -0.287596906705537 38.000000000000000
20.137412131562371 -3.243213710414608 -0.346946503698476 10.000000000000000
20.129610994085919 -3.277809153880547 -0.407519279763236 10.000000000000000
20.138685072781733 -3.244089324127565 -0.468661679075494 9.000000000000000
20.104074136268451 -3.265706180222921 -0.524549275649760 9.000000000000000
20.108876236810325 -3.230912452350964 -0.586128299729229 9.000000000000000
20.120000678115638 -3.269575873680012 -0.647785556338263 9.000000000000000
20.140110448750249 -3.237936000843433 -0.709285843437303 8.000000000000000
20.131304972401242 -3.272275926450952 -0.769142437247860 8.000000000000000
20.146826979409365 -3.267992178199044 -0.889602539397548 11.000000000000000
20.144961297302810 -3.268493036928795 -1.011539603289489 10.000000000000000
19.421290499935584 -3.133790016241868 -1.073588395467601 8.000000000000000
18.859088777698684 -3.063034884426060 -1.087330717009495 9.000000000000000
18.197275318234826 -2.960158215108954 -1.083406123677141 9.000000000000000
17.196527084770970 -2.770522843575343 -1.099945511418845 8.000000000000000
16.674805237877518 -2.702288892068111 -1.103679388216716 8.000000000000000
16.321835901458211 -2.664838645198422 -1.118099287237833 8.000000000000000
15.379362099245625 -2.469307284217024 -1.115417274538592 8.000000000000000
6.914598587181255 -1.114629176448354 -0.524519330927326 1.000000000000000
14.585154201802546 -2.370609130696032 -1.121492531445844 9.000000000000000
6.455356230057149 -1.049621713273339 -0.576366103903508 1.000000000000000
6.405468021398808 -1.035721061622596 -0.665223601807268 1.000000000000000
6.323043987707170 -1.036083311741237 -0.785835362237082 11.000000000000000
6.251898752662860 -1.016668651566725 -0.884894575204290 4.000000000000000
6.251277937460441 -1.014708345223426 -0.998537538540986 4.000000000000000
6.264084957286433 -1.015932717790776 -1.115111297485204 3.000000000000000
6.097716170820273 -0.987233573590551 -1.663475882908688 5.000000000000000
4.471738506367913 -0.732055881252961 -1.664694902599150 13.000000000000000
20.091042790573731 -3.345401087360948 4.418771516123984 44.000000000000000
18.047871035940833 -3.001114920100342 3.042642928441261 6.000000000000000
0.515596376289028 -0.085230015469726 0.072387259545272 0.000000000000000
20.120909676289934 -3.304706390034319 1.524158829059083 43.000000000000000
20.119673408404150 -3.364074934681568 0.920545990306402 52.000000000000000
20.124617978419000 -3.366187099054052 0.677318634039260 48.000000000000000
20.117391871064804 -3.329394352628690 0.617667787148655 60.000000000000000
20.140487351394341 -3.362324965049659 0.558350374861070 55.000000000000000
20.121186190327762 -3.322662798022080 0.498415631222530 54.000000000000000
20.119637341899395 -3.358599850073780 0.437095000409420 51.000000000000000
20.135244070124799 -3.326145500012025 0.376795760290451 47.000000000000000
20.141212043089052 -3.363576099288309 0.315697416194372 46.000000000000000
20.144723970848403 -3.328793095198044 0.254706191689783 53.000000000000000
20.162866248018183 -3.360882092239514 0.196166322729988 52.000000000000000
20.134659806084485 -3.319457259681208 0.136094854112752 57.000000000000000
20.183107696832007 -3.365376041183993 0.073902432746506 48.000000000000000
20.138735553448782 -3.320997076843348 0.014031492762479 51.000000000000000
20.143656711300981 -3.358290202755896 -0.046931925275992 46.000000000000000
20.157881617846972 -3.325498888540238 -0.108212868947463 46.000000000000000
20.171090085797555 -3.356369642327031 -0.166840785534166 57.000000000000000
20.145739891972031 -3.315647996856228 -0.227166583016397 53.000000000000000
20.165630137087351 -3.356105017289444 -0.289294327023493 26.000000000000000
20.135924626267773 -3.314908336307418 -0.348522446917392 10.000000000000000
20.124093456905957 -3.348752334600611 -0.408952238293363 8.000000000000000
20.125460942733557 -3.313558524338355 -0.469737613164687 9.000000000000000
20.110254588539938 -3.338834912243293 -0.526631645899081 9.000000000000000
20.107358554019306 -3.302522229685977 -0.587843347032951 9.000000000000000
20.110522401566794 -3.339731677217785 -0.649085151257844 9.000000000000000
20.142534980030451 -3.310379418166129 -0.711311373299707 9.000000000000000
20.129701390887245 -3.343972373312823 -0.770965704757819 9.000000000000000
20.141203686232096 -3.338998065088745 -0.891222057501424 10.000000000000000
20.117666698884079 -3.299192956612693 -0.950638188248896 9.000000000000000
20.147214804617729 -3.340988983179514 -1.013799731078002 10.000000000000000
19.392730101516239 -3.197766525069831 -1.073346399115537 7.000000000000000
18.838640907733097 -3.126531351025193 -1.087673838530255 9.000000000000000
18.177067431767586 -3.021326625288019 -1.083689883173873 10.000000000000000
17.173131078029073 -2.827430420331574 -1.099762008585141 8.000000000000000
16.647775237916832 -2.756599566950086 -1.103053607212942 8.000000000000000
16.298874918400632 -2.718672032256436 -1.117799159112607 9.000000000000000
15.341388082920584 -2.516735295767177 -1.113344223089754 8.000000000000000
6.912619337259518 -1.138891928102304 -0.525460796316497 1.000000000000000
14.559302670354139 -2.417554264515147 -1.120522092699450 10.000000000000000
12.813307530027146 -2.107080609466848 -1.158015941529236 8.000000000000000
6.438120735903962 -1.066776536255070 -0.672595671271251 5.000000000000000
6.276717760997083 -1.045317707125768 -0.892014806239314 2.000000000000000
6.249547474346428 -1.036679029975623 -0.999780932377156 4.000000000000000
6.273613551446188 -1.040772723706866 -1.119359298160359 3.000000000000000
6.095931408085629 -1.008645469347499 -1.665107603700388 5.000000000000000
4.467166041540723 -0.746868767153629 -1.664927815245024 13.000000000000000
20.162469034051526 -3.431321302627872 4.434237914343730 42.000000000000000
18.047274850744504 -3.065594674869935 3.043321495573485 7.000000000000000
20.120425189731641 -3.388200226867987 2.247716461576566 42.000000000000000
20.123057341438585 -3.371331406792450 1.161701414570733 46.000000000000000
20.172672862925914 -3.446644142135817 0.920840218254339 47.000000000000000
20.162828686001298 -3.410208285092573 0.616912707051145 51.000000000000000
20.189564628769212 -3.444181524600893 0.557430580915755 52.000000000000000
20.131191507169227 -3.396662222527674 0.497329927921382 53.000000000000000
20.176630258150333 -3.441873499508105 0.435769488280218 45.000000000000000
20.153136727202540 -3.401704780337056 0.375514655654878 43.000000000000000
20.210013913736645 -3.449191934172781 0.313830136846169 41.000000000000000
20.194068809473308 -3.410446741875816 0.252836147585321 47.000000000000000
20.200152665345701 -3.440478130098214 0.194298105204434 52.000000000000000
20.160354904352218 -3.396557355299485 0.134292461728896 54.000000000000000
20.240046762053264 -3.448845300673021 0.071300685185448 50.000000000000000
20.168396162057906 -3.398842100773784 0.011893407934691 45.000000000000000
20.184965084682126 -3.438517324067483 -0.049526213440761 47.000000000000000
20.211124689645256 -3.407935163935527 -0.111336160268538 41.000000000000000
20.208352808108877 -3.435977580352045 -0.169628278993818 49.000000000000000
20.183184480704831 -3.395056415420122 -0.230108818958264 49.000000000000000
20.218624784702371 -3.438720613397990 -0.293014267868497 35.000000000000000
20.130254155550261 -3.385885219345887 -0.349932061402262 10.000000000000000
20.126166124016798 -3.421230442228307 -0.410743563014489 10.000000000000000
20.139452592027922 -3.388281180468290 -0.472150460003029 10.000000000000000
20.104404296602397 -3.409745883039918 -0.528108422181725 9.000000000000000
20.109503228693651 -3.374925621238283 -0.589773090649353 9.000000000000000
20.120390145462515 -3.413694093109129 -0.651514305612879 9.000000000000000
20.148613386240601 -3.383653577196483 -0.713576287143397 8.000000000000000
20.131755310023653 -3.416465199916409 -0.773038965864877 8.000000000000000
20.140005036253402 -3.382804723322195 -0.835072694057900 9.000000000000000
20.139241201315873 -3.410777570620823 -0.893114335036711 10.000000000000000
20.119788510851695 -3.371625790104993 -0.952850275766211 9.000000000000000
20.137457879725762 -3.411244986694705 -1.015170549810574 12.000000000000000
19.360041903979187 -3.260822964944666 -1.072781913166933 7.000000000000000
18.802326705482500 -3.186863814972234 -1.086686634155927 9.000000000000000
18.160557047865403 -3.083170982173044 -1.084315191590949 10.000000000000000
17.141727584953131 -2.882675945879882 -1.098843560253463 8.000000000000000
16.612754213088284 -2.809201066993261 -1.101667648094576 8.000000000000000
16.275731499574803 -2.772384528210758 -1.117497045676425 8.000000000000000
15.338359681311378 -2.571046152945158 -1.114987061113989 8.000000000000000
6.895173260139525 -1.159388300239428 -0.524092282441953 1.000000000000000
14.541085387335247 -2.465956499626152 -1.120423083996669 9.000000000000000
6.599144396996187 -1.108522748134000 -0.601929421750884 3.000000000000000
6.428630668580312 -1.087483819362255 -0.672230438978504 0.000000000000000
6.344100936304501 -1.064060910498263 -0.791644534933369 22.000000000000000
6.301405465650689 -1.074164947152759 -0.899137972301124 1.000000000000000
6.281693081152199 -1.067316067253699 -1.009260023053075 2.000000000000000
6.290554608973372 -1.067616256136304 -1.125568386313852 2.000000000000000
6.086746444325875 -1.028187015290833 -1.664116273011084 4.000000000000000
4.462540133007564 -0.761662433443639 -1.665160408011919 14.000000000000000
20.171893042189613 -3.505470372900234 4.437672177825999 44.000000000000000
18.046445012303838 -3.130118124033082 3.043999201999971 7.000000000000000
20.188871542090649 -3.473839966755506 2.253753220009708 51.000000000000000
20.207460714277442 -3.460057642131225 1.163815864182277 47.000000000000000
20.203536646311743 -3.489025952268619 0.860649364265044 46.000000000000000
20.177726102855861 -3.448687570219910 0.676803918540612 40.000000000000000
20.231484464248886 -3.496038165103009 0.616278665424736 49.000000000000000
20.253996832745329 -3.529572483656146 0.556542624334700 46.000000000000000
20.219385728507842 -3.486364977005778 0.496197185443419 53.000000000000000
20.237203075737952 -3.526383975271145 0.434422425043329 41.000000000000000
20.233521023759728 -3.489862111444424 0.373814647240374 46.000000000000000
20.294147545189649 -3.538461515476428 0.311803165113052 32.000000000000000
20.250931007725249 -3.494037837543800 0.250860683696149 47.000000000000000
20.276338892611253 -3.528243430671658 0.191813147221886 43.000000000000000
20.236750219383364 -3.483996005060817 0.131537046403397 57.000000000000000
20.531936829663493 -3.579785497129386 0.063593976446788 17.000000000000000
20.236982160240213 -3.484697035683958 0.008782986200913 50.000000000000000
20.245561417399522 -3.522981050529872 -0.052668948433086 40.000000000000000
20.260107422884591 -3.490015399649238 -0.114345212965110 37.000000000000000
20.260979794491508 -3.519030634885347 -0.172948036212264 54.000000000000000
20.239920407432585 -3.478658766993767 -0.233774983853506 56.000000000000000
20.236004361821131 -3.514725199010762 -0.295339182753971 14.000000000000000
20.132168708898913 -3.458419391431889 -0.351676861554618 10.000000000000000
20.127970641329760 -3.493772179413725 -0.412535725008062 9.000000000000000
20.133561005283962 -3.459292602098309 -0.473608717548600 10.000000000000000
20.098298595602120 -3.480660795029429 -0.529585155589586 9.000000000000000
20.107462532294068 -3.446618688562239 -0.591489117625542 9.000000000000000
20.129980739207515 -3.487780624589107 -0.653945723685517 9.000000000000000
20.138749703874019 -3.453929838105729 -0.714889793645625 9.000000000000000
20.129627645979124 -3.488240807670863 -0.774863175419103 7.000000000000000
20.138022702959013 -3.454587875475227 -0.836933921641280 8.000000000000000
20.125277314886972 -3.480248652944113 -0.894187973990204 9.000000000000000
20.125556868148081 -3.444895472625099 -0.955348142179144 8.000000000000000
20.127450468403509 -3.481486478521290 -1.016541541047433 11.000000000000000
19.291945184221294 -3.316719818486433 -1.069333044425759 8.000000000000000
18.765817410392277 -3.246990769193545 -1.085696440111678 9.000000000000000
18.104776020936708 -3.137020385264094 -1.081505528414704 9.000000000000000
17.098432516041267 -2.935368145771584 -1.096821377379154 8.000000000000000
16.597072523934155 -2.865574436446572 -1.102173879067980 8.000000000000000
16.229009017903959 -2.821190389402240 -1.114850689155368 9.000000000000000
15.315650203599422 -2.621360475737063 -1.114562788148578 8.000000000000000
14.807915731682087 -2.545319646680632 -1.107692828816904 9.000000000000000
14.522702482447272 -2.514268740455101 -1.120322579353731 10.000000000000000
12.794475581257117 -2.194874412567067 -1.159377393415742 8.000000000000000
6.464843795531395 -1.119863674971761 -0.680311687277980 1.000000000000000
6.306155336009748 -1.096250202771998 -1.016912425577740 1.000000000000000
6.314888845811773 -1.096541108167131 -1.133739906556078 1.000000000000000
6.084807282646287 -1.049585426881372 -1.665747668142735 4.000000000000000
4.454388741523250 -0.775414983630270 -1.663690855030236 14.000000000000000
20.181038967440497 -3.579743359467777 4.441104176349651 43.000000000000000
18.041498480791560 -3.193881407985579 3.044130284397867 7.000000000000000
20.526548578283474 -3.614349618128834 2.283126876957068 16.000000000000000
20.573711370125540 -3.606064514959662 1.175084405089443 16.000000000000000
20.268460746998311 -3.538307305922558 0.922010333297034 39.000000000000000
20.285412909135786 -3.542569802277185 0.676741107972348 36.000000000000000
20.570356674892146 -3.636829509298352 0.617076842127716 18.000000000000000
20.401287797900615 -3.595765542401402 0.494994515425304 29.000000000000000
20.588002917529600 -3.633957135548073 0.370269496492417 14.000000000000000
20.593708443124527 -3.635583379635499 0.245224826058257 17.000000000000000
20.477420954639548 -3.605273317462334 0.125695628059789 24.000000000000000
20.579621278616454 -3.626314324108975 -0.001130290447999 14.000000000000000
20.598845055589067 -3.630680322523304 -0.126300282309634 12.000000000000000
20.607060674577053 -3.662392225936323 -0.186182886778610 16.000000000000000
20.421703430162399 -3.587998718709834 -0.242058837132865 19.000000000000000
20.145570392987242 -3.533379223254819 -0.353925822408488 9.000000000000000
20.117759631570177 -3.563993898426070 -0.413789695664848 9.000000000000000
20.127413489887950 -3.530319555276073 -0.475067318249552 9.000000000000000
20.107595752423109 -3.554766945300408 -0.531872620145732 9.000000000000000
20.120823527814746 -3.521498709381738 -0.594064663295963 9.000000000000000
20.135381257289701 -3.561187064191387 -0.656152196813998 9.000000000000000
20.136466659761204 -3.525754259437342 -0.716679539832257 7.000000000000000
20.135065750835462 -3.561631546662255 -0.777187791416224 8.000000000000000
20.143607881319554 -3.527970860258499 -0.839320051783538 8.000000000000000
20.126711605270270 -3.552850683821980 -0.896353563630894 9.000000000000000
20.138877187437728 -3.519827849768710 -0.958417742590709 8.000000000000000
20.140650443694426 -3.556459229059392 -1.019693449771690 11.000000000000000
19.266681889879738 -3.380865522582468 -1.069401437952818 7.000000000000000
18.725205741700961 -3.306109505764766 -1.084369882628027 9.000000000000000
18.060543739077051 -3.192944395891111 -1.079721393823518 10.000000000000000
17.086182399468715 -2.994232858273577 -1.097732372154874 8.000000000000000
16.557801323309686 -2.917027050350413 -1.100403108597093 8.000000000000000
16.217210807923852 -2.877019432078676 -1.115715481443239 9.000000000000000
15.284984724200442 -2.669914786309448 -1.113308989087217 8.000000000000000
14.800903339588277 -2.597013396607743 -1.108906327950891 9.000000000000000
14.519709379400876 -2.565801947205671 -1.121969782678554 10.000000000000000
12.784826288630509 -2.238711714675802 -1.160056764012670 8.000000000000000
6.371368774791951 -1.114970845037227 -0.916456601312718 1.000000000000000
6.346592870360946 -1.127620295710273 -1.143874747609774 1.000000000000000
6.086440181800490 -1.071957968515740 -1.668691136418196 4.000000000000000
4.439257232005092 -0.787045829309825 -1.658816429179095 14.000000000000000
20.174517945377858 -3.650941469480166 4.441530182545169 43.000000000000000
18.047955125192878 -3.260093443036531 3.045899487479526 6.000000000000000
20.555041240657687 -3.693978883318309 2.285751447293063 16.000000000000000
20.567059794370216 -3.678647216833433 1.174241078341929 15.000000000000000
20.587172586554829 -3.676404086879202 0.927728800442629 16.000000000000000
20.561227199379580 -3.671523979008768 0.678063870695973 16.000000000000000
20.579319897196680 -3.712615504507795 0.616102468713651 17.000000000000000
20.592398182903089 -3.671547591665110 0.556291875136112 19.000000000000000
20.570910000264927 -3.704063655617489 0.493780003949030 16.000000000000000
20.587465152631150 -3.670454266534712 0.431998001672723 15.000000000000000
20.585152490999153 -3.707405683812539 0.369091646664196 17.000000000000000
20.585649128947704 -3.670549749201314 0.307745431205499 15.000000000000000
20.586981210398339 -3.708238648995959 0.244024734719262 15.000000000000000
20.602947743416760 -3.667791088298529 0.185387848156162 14.000000000000000
20.603878668605486 -3.704919183131075 0.121958685508986 15.000000000000000
20.591939537970557 -3.665773619021955 0.060880420987555 15.000000000000000
20.580693157035075 -3.700529848513398 -0.002617547739645 16.000000000000000
20.584040459365809 -3.664330942337052 -0.063550976075712 13.000000000000000
20.607781336607953 -3.706551826639448 -0.128126319891762 14.000000000000000
20.603992040395095 -3.735933702477034 -0.187678491852538 16.000000000000000
20.548141573084024 -3.687399314272980 -0.248342422080039 11.000000000000000
20.135196822227133 -3.603671561711892 -0.355168741984457 9.000000000000000
20.126866856276656 -3.638243175170281 -0.415943500666098 9.000000000000000
20.120525598964434 -3.629804728447638 -0.534364852480050 8.000000000000000
20.122161772764095 -3.594115970584440 -0.595997200364956 9.000000000000000
20.132684742639078 -3.633067571204428 -0.657906347028597 8.000000000000000
20.149568974325891 -3.600808691257491 -0.719423935478813 7.000000000000000
20.136320034728211 -3.634320188954256 -0.779264431347227 8.000000000000000
20.145007803246536 -3.600643677424436 -0.841444671865287 8.000000000000000
20.127877748661099 -3.625516344403948 -0.898520154432731 8.000000000000000
20.140187793307380 -3.592496936121407 -0.960633035560175 9.000000000000000
20.134030908482359 -3.627548583890913 -1.021361851132538 14.000000000000000
19.731706848443487 -3.510000218433582 -1.050405364935704 7.000000000000000
18.684406140967674 -3.364989157598970 -1.083039497715271 9.000000000000000
18.047337020557251 -3.255162120018731 -1.080683206198515 10.000000000000000
17.007452137052898 -3.039164133506034 -1.092397255729101 9.000000000000000
16.530056346115902 -2.970732492778971 -1.099768273533045 8.000000000000000
16.193534630572177 -2.930321654725915 -1.115406669021536 9.000000000000000
15.258052900675185 -2.719125270176228 -1.112466302713481 8.000000000000000
14.785927938428379 -2.647023716376104 -1.109267505709774 9.000000000000000
14.485441587149758 -2.610608017922772 -1.120116513946244 10.000000000000000
12.771146981588700 -2.281669855741740 -1.160228787351855 8.000000000000000
6.463797139822799 -1.162243801724429 -0.938880259773782 2.000000000000000
6.341783507216204 -1.128338728365172 -1.027313981378260 1.000000000000000
6.069737129255302 -1.089467455807856 -1.665073968732151 4.000000000000000
4.434483618230760 -0.801745527967036 -1.659047461315038 16.000000000000000
20.167739786750285 -3.722147051994639 4.441956085971418 42.000000000000000
18.038662866607602 -3.323086633812018 3.045483831685843 7.000000000000000
20.552010664601415 -3.767337357185838 2.285668989005575 16.000000000000000
20.571889275690818 -3.753676230721496 1.173778406686977 16.000000000000000
20.572373171568337 -3.747436345147030 0.926631231395233 16.000000000000000
20.570033898046120 -3.747343037341111 0.677159098913967 14.000000000000000
20.580167911677353 -3.786882018707686 0.615085709120700 17.000000000000000
20.581511537504618 -3.743415882735839 0.555203013406482 17.000000000000000
20.583419578199539 -3.780778612247097 0.492662930407788 16.000000000000000
20.576627132307436 -3.742297773619626 0.430885270214531 15.000000000000000
20.570289794533942 -3.778428320369294 0.367993462692449 16.000000000000000
20.574855248697045 -3.742398716107544 0.306607230307300 16.000000000000000
20.592054208005479 -3.739692817878236 0.184227839174745 16.000000000000000
20.596789862565885 -3.777645302511829 0.120712825200454 15.000000000000000
20.588930273649311 -3.739254055264055 0.059525928784524 17.000000000000000
20.577578173355185 -3.773987597265815 -0.004007968750549 18.000000000000000
20.581079856520375 -3.737790368560319 -0.064978038161966 15.000000000000000
20.600774931398785 -3.779283581815122 -0.129469007531679 15.000000000000000
20.525438400828222 -3.756657829480773 -0.249148965033745 10.000000000000000
20.140223365672629 -3.677197843723469 -0.357084009024606 9.000000000000000
20.120052636460009 -3.709307184411003 -0.417377563700035 9.000000000000000
20.133911043560484 -3.676432875473878 -0.478943219924159 9.000000000000000
20.121445514749002 -3.702504376948085 -0.536249483475773 8.000000000000000
20.119324863321484 -3.665970481012657 -0.597715326400787 8.000000000000000
20.137544046654266 -3.706619723229473 -0.660114756090026 8.000000000000000
20.146750289707619 -3.672752711325636 -0.721215202736033 8.000000000000000
20.137306403799620 -3.707053010204611 -0.781340729631402 9.000000000000000
20.138324760178872 -3.671750857618321 -0.843045045037334 9.000000000000000
20.136587336224508 -3.699878053191014 -0.901234531930150 9.000000000000000
20.137325108528664 -3.664411666221639 -0.962563489573633 9.000000000000000
20.119349675194591 -3.696999024358846 -1.022435486124050 14.000000000000000
19.678416445685691 -3.569938301408271 -1.048365913439591 7.000000000000000
18.655119416613850 -3.426099671186499 -1.082704310607170 8.000000000000000
18.006631072559507 -3.311499270289936 -1.079236184556355 10.000000000000000
17.006522891078191 -3.100198896392968 -1.094405836997226 9.000000000000000
16.498241500135801 -3.023428990707465 -1.098750140042781 8.000000000000000
16.177459160590949 -2.985187187715390 -1.115878155045148 9.000000000000000
15.238733876966482 -2.769878117285003 -1.112449464878273 8.000000000000000
14.770779339924360 -2.696965827145554 -1.109627551104703 9.000000000000000
14.485979325930394 -2.662917828786682 -1.122200057345188 10.000000000000000
12.753445576189410 -2.323703720351837 -1.159892384598677 8.000000000000000
6.571072791529665 -1.214204847425719 -0.964713159099299 0.000000000000000
6.403597500104826 -1.167705183816558 -1.044129345875910 1.000000000000000
6.419374877301382 -1.169903959041960 -1.164798814497473 0.000000000000000
6.067566652148810 -1.110843751050517 -1.666704931830978 4.000000000000000
4.433116577820302 -0.817488241816605 -1.660980705729696 19.000000000000000
20.176073158616866 -3.796644302407699 4.445385344535400 43.000000000000000
18.044635833415501 -3.389421568532050 3.047251541740418 6.000000000000000
20.540916429568934 -3.839068588797623 2.284910763346459 16.000000000000000
20.576440231998856 -3.828790061490331 1.173314619854163 16.000000000000000
20.569059614433982 -3.820903849695846 0.925773582884351 16.000000000000000
20.570729212008160 -3.821608262996826 0.676189799532487 16.000000000000000
20.576829607752188 -3.860374944200728 0.614047865686669 17.000000000000000
20.574282613688030 -3.816081318224398 0.554123704387100 17.000000000000000
20.576077830325943 -3.853462783579566 0.491559411411664 16.000000000000000
20.573359347290779 -3.815770371248519 0.429743338487982 15.000000000000000
20.582563839342068 -3.855236813974955 0.366706834856144 17.000000000000000
20.579461657403691 -3.817502604843355 0.305316472910888 16.000000000000000
20.588730648653630 -3.813223323216462 0.182944793713656 15.000000000000000
20.593349569602285 -3.851209277362777 0.119393176024206 15.000000000000000
20.597392629673806 -3.815235536527780 0.057914354087213 16.000000000000000
20.574195444959425 -3.847493456549195 -0.005400068547191 17.000000000000000
20.577851179810807 -3.811262734492210 -0.066404312315913 16.000000000000000
20.597419311026481 -3.852841844151826 -0.130932967167021 14.000000000000000
20.604567871949392 -3.810327610338220 -0.189306720871134 17.000000000000000
20.533776488778958 -3.832459657705535 -0.251111446536372 9.000000000000000
20.161914294943593 -3.790302825048414 -0.299024734004624 7.000000000000000
20.137155947191612 -3.749175118431921 -0.358664866306084 9.000000000000000
20.120797292766238 -3.782043751329475 -0.419172045646443 9.000000000000000
20.130891162386252 -3.748357699930487 -0.480594309874877 9.000000000000000
20.122097143785087 -3.775263725163427 -0.538134868177812 8.000000000000000
20.120131450010227 -3.738688688377799 -0.599649154191278 8.000000000000000
20.134319058671789 -3.778586254300428 -0.661869962090342 8.000000000000000
20.139763910121498 -3.743920034676918 -0.722769081987085 8.000000000000000
20.122407084680223 -3.776515364321078 -0.782415076652039 7.000000000000000
20.154817876973180 -3.747805537169711 -0.846221484058037 9.000000000000000
20.141114807838385 -3.773518592635163 -0.903676651103167 10.000000000000000
20.134200507496555 -3.736356251860997 -0.964494264669277 9.000000000000000
20.120026268940190 -3.769731456700448 -1.024698312159690 12.000000000000000
19.636649394485211 -3.632043366243188 -1.047250835993378 6.000000000000000
18.617834363446178 -3.485378272088127 -1.081700135172863 9.000000000000000
17.989112463604510 -3.372679644738867 -1.079850625786311 10.000000000000000
16.997583949469238 -3.159575038929454 -1.095678717644098 8.000000000000000
16.501266092983389 -3.083595003094473 -1.101148454874612 8.000000000000000
16.137866122650305 -3.034851075001896 -1.114000271922397 9.000000000000000
15.203703364189863 -2.817099170279100 -1.110773759613013 8.000000000000000
14.739927839038437 -2.743393713567301 -1.108281024706361 10.000000000000000
14.447523671495279 -2.706584584579126 -1.119904820735083 10.000000000000000
12.743339376720986 -2.367408297338969 -1.160569709717392 8.000000000000000
6.480241566096022 -1.211587593489682 -1.064615122560052 0.000000000000000
6.461977576006006 -1.204637693748637 -1.177885292877122 0.000000000000000
6.058030234539774 -1.130216593286171 -1.665710706681713 4.000000000000000
4.417865664577854 -0.828933650407521 -1.656103303050473 28.000000000000000
20.168771959187779 -3.867905865238129 4.445810928987983 43.000000000000000
18.050360640837194 -3.455836107087855 3.049018651753622 7.000000000000000
0.505825242311416 -0.096313274084594 0.068816315139246 0.000000000000000
20.576803501603457 -3.903145320435662 1.172723388862831 16.000000000000000
20.565479342581057 -3.894396283586929 0.924915564011071 16.000000000000000
20.567239202534420 -3.895096179788268 0.675187865019493 16.000000000000000
20.581043886278923 -3.935583098057933 0.613049867506252 18.000000000000000
20.570701994382798 -3.889592594327091 0.553053115007577 17.000000000000000
20.576292511404390 -3.927843372989997 0.490449407487931 16.000000000000000
20.577647741725862 -3.890947068703838 0.428570840609561 15.000000000000000
20.582818542262356 -3.929629589962900 0.365500833965546 16.000000000000000
20.579878621494711 -3.891851903367986 0.304063373939789 17.000000000000000
20.588688920572785 -3.931278424507362 0.240119805370375 16.000000000000000
20.585138643000409 -3.886782288993246 0.181661470629677 15.000000000000000
20.597458689793051 -3.926491183515019 0.117925001531892 15.000000000000000
20.593838782161356 -3.888818058480886 0.056558678807955 15.000000000000000
20.570544503198548 -3.921008325565296 -0.006791147855668 17.000000000000000
20.578265255859048 -3.885602831904727 -0.067940453753592 16.000000000000000
20.593796177854404 -3.926428766260443 -0.132397247881154 15.000000000000000
20.604869684915961 -3.884776092390723 -0.190935716869842 16.000000000000000
20.537923202409779 -3.907530180597462 -0.252930527678052 8.000000000000000
20.142793098345372 -3.858988385890775 -0.299942100156000 7.000000000000000
20.129920096237125 -3.820320740177401 -0.360076088302685 10.000000000000000
20.125178883289799 -3.855685617466996 -0.421147728746296 9.000000000000000
20.139326031638337 -3.822833690647734 -0.482822880100584 8.000000000000000
20.114674172842143 -3.846373079782254 -0.539613946569350 9.000000000000000
20.116765792569428 -3.810621363138331 -0.601368124183645 9.000000000000000
20.126928510191437 -3.849725807464928 -0.663397430919942 8.000000000000000
20.136422847872616 -3.815912374894950 -0.724560753127227 7.000000000000000
20.122868687743264 -3.849307697316327 -0.784491973644686 7.000000000000000
20.147603832790555 -3.819006003045608 -0.847822880872609 8.000000000000000
20.137569154449384 -3.845541048908103 -0.905571823191038 9.000000000000000
20.126912694527292 -3.807490124805675 -0.966139363253943 10.000000000000000
20.116536918074878 -3.841660427281738 -1.026663460079065 12.000000000000000
19.575188551871072 -3.689703066661451 -1.044582552340151 7.000000000000000
18.580357805568333 -3.544448230288836 -1.080692538862074 9.000000000000000
17.955815486631373 -3.430344368256883 -1.079086141862589 10.000000000000000
16.953426623992463 -3.211220974360806 -1.093639784498204 8.000000000000000
16.457420455099630 -3.133466691935396 -1.098986037364105 8.000000000000000
16.113658529340924 -3.087755013110801 -1.113684950376663 9.000000000000000
15.168523324180178 -2.864120549002756 -1.109094830908115 9.000000000000000
14.732202146723111 -2.794903861072640 -1.109491279219466 9.000000000000000
14.439949872817472 -2.757077878357855 -1.121111073282186 9.000000000000000
12.729212906137555 -2.410181186724522 -1.160738584084179 8.000000000000000
6.048427330542292 -1.149547926102251 -1.664715808687924 5.000000000000000
4.416390609894203 -0.844645485694819 -1.658035979857637 31.000000000000000
20.161212140869605 -3.939158981812710 4.446236847987615 44.000000000000000
18.051969289568778 -3.521478890849906 3.050238659627990 6.000000000000000
0.510477658111960 -0.098387010473608 0.067104396657419 0.000000000000000
20.576892474638523 -3.977547293673730 1.172131796407213 16.000000000000000
20.573349099598303 -3.970491837511318 0.924294736977688 16.000000000000000
20.567389798905030 -3.969459561445198 0.674217317138193 17.000000000000000
20.573256386872476 -4.008304781370228 0.611991330753143 18.000000000000000
20.574666913037767 -3.964844834477752 0.551998904826705 17.000000000000000
20.580139636624320 -4.003140494192799 0.489335276801926 16.000000000000000
20.566023483399285 -3.962786424024920 0.427459192462447 15.000000000000000
20.594518639720306 -4.006654818220952 0.364212205501032 17.000000000000000
20.576112236416325 -3.965408907760093 0.302848600195774 17.000000000000000
20.584804352362269 -4.004880289619997 0.238867876751323 16.000000000000000
20.589093523119509 -3.962078215809576 0.180253381708418 14.000000000000000
20.601288352489810 -4.001857707267902 0.116455695721729 15.000000000000000
20.590017004366349 -3.962417450331408 0.055203320521586 16.000000000000000
20.578343366246791 -3.997124796625855 -0.008476851661524 16.000000000000000
20.574498501746220 -3.959151369128207 -0.069367465082447 16.000000000000000
20.609431977647425 -4.004320038341653 -0.134471038616489 14.000000000000000
20.608802291422357 -3.960136494901626 -0.192698292696327 16.000000000000000
20.522269600240488 -3.978387741885712 -0.254025050127741 7.000000000000000
20.139041357559925 -3.931061397422738 -0.301486835682723 7.000000000000000
20.130234758547445 -3.893176203964835 -0.361824917714777 9.000000000000000
20.121481472252167 -3.927688124678681 -0.422763163121833 9.000000000000000
20.139675526652930 -3.895711934594360 -0.484667756038412 9.000000000000000
20.114794529826860 -3.919217854148613 -0.541500360982207 9.000000000000000
20.124841856070514 -3.885149036038634 -0.603734744473565 8.000000000000000
20.134878603845127 -3.924323887415717 -0.665835802913392 8.000000000000000
20.132819733567406 -3.887930640869136 -0.726352728828800 8.000000000000000
20.126960444896014 -3.923015388216101 -0.786820649359383 7.000000000000000
20.151833238821496 -3.892754635539383 -0.850213462420771 8.000000000000000
20.145449585352619 -3.920181983168405 -0.908290055071709 9.000000000000000
20.131059935588642 -3.881189682875139 -0.968642963453731 11.000000000000000
20.112785135319932 -3.913630843963254 -1.028629546044866 14.000000000000000
19.552519585619727 -3.755498224479823 -1.045006559876790 6.000000000000000
18.554366249121141 -3.605879618301465 -1.080681797496501 9.000000000000000
17.914554232135810 -3.486075295931407 -1.077629465014655 10.000000000000000
16.912997723942155 -3.263475285936607 -1.091964882447221 8.000000000000000
16.421190732028123 -3.184830890560271 -1.097580173918849 8.000000000000000
16.077628039574360 -3.137878654414415 -1.112191701194680 9.000000000000000
15.133195489540366 -2.910938722412865 -1.107412831098980 8.000000000000000
14.712662976414475 -2.843729628260711 -1.109420645322543 9.000000000000000
14.416699231863234 -2.803976828225608 -1.120563627688917 10.000000000000000
12.718799825982526 -2.453800695115774 -1.161414427461968 8.000000000000000
8.869529679318873 -1.732524755202405 -1.313193349284387 3.000000000000000
6.046028392372340 -1.170891013028772 -1.666346121959407 5.000000000000000
4.411406349560647 -0.859265073626794 -1.658265681815407 43.000000000000000
18.049471192600176 -3.586301223408967 3.050912636817474 7.000000000000000
20.537215884201025 -4.061054517920134 2.285336583618860 15.000000000000000
20.564999878859911 -4.049407721606556 1.171161149661784 16.000000000000000
20.561416256070824 -4.042343537888478 0.923277729620821 17.000000000000000
20.567266511088135 -4.043881447003237 0.673246067700375 17.000000000000000
20.573015480148776 -4.082756016924975 0.610972787968109 19.000000000000000
20.574448497501240 -4.039308553345180 0.550935571231950 17.000000000000000
20.583705585009238 -4.078525764731225 0.488219392386897 16.000000000000000
20.569763041557561 -4.038076000239322 0.426285269503300 15.000000000000000
20.586409441504433 -4.079451835678448 0.363059166837112 16.000000000000000
20.575984345455236 -4.039852432416495 0.301594366088931 17.000000000000000
20.580650919347445 -4.078498825243486 0.237616368176953 15.000000000000000
20.581055036944718 -4.034851143411380 0.179031545831324 16.000000000000000
20.593128292949061 -4.074690406983379 0.115208463706742 14.000000000000000
20.589832280025252 -4.036918526183925 0.053760859646888 15.000000000000000
20.574147569433794 -4.070733891773713 -0.009869066105745 16.000000000000000
20.586080595153202 -4.036173190037914 -0.071234637754192 15.000000000000000
20.609159436850046 -4.078887768918918 -0.136058253800783 13.000000000000000
20.612455170614130 -4.035573655540382 -0.194462071091959 16.000000000000000
20.502466172681771 -4.048323940737703 -0.254973663485623 7.000000000000000
20.142825524582925 -4.004915308907066 -0.303346354404692 8.000000000000000
20.126380754427899 -3.965219465441898 -0.363405350357157 8.000000000000000
20.125320506650663 -4.001463714496822 -0.424740622091090 8.000000000000000
20.124154788806781 -3.965170243882248 -0.485741491952401 8.000000000000000
20.122440290477343 -3.993868330501769 -0.543795368899880 8.000000000000000
20.128738514644400 -3.958924751345606 -0.605887344724550 8.000000000000000
20.146444116960197 -3.999904453744435 -0.668503500261179 7.000000000000000
20.136749207898255 -3.961713039054629 -0.728624196826407 7.000000000000000
20.142465042586110 -3.999420832712779 -0.789904294604741 7.000000000000000
20.147993319346096 -3.964850831962416 -0.852077858287040 8.000000000000000
20.141369338160420 -3.992300857860691 -0.910186415689533 9.000000000000000
20.127143744071937 -3.953242089431811 -0.970575284752915 11.000000000000000
20.112662830121099 -3.986500741831733 -1.030894046720251 14.000000000000000
19.506266861504372 -3.815998230821698 -1.043568576984605 6.000000000000000
18.535943840164485 -3.668942004612660 -1.081337167984455 9.000000000000000
17.877003517188886 -3.542457651052914 -1.076514001690420 9.000000000000000
16.880172769098866 -3.317262523664382 -1.091023066546074 8.000000000000000
16.400322721112218 -3.239547214481497 -1.097693168613130 8.000000000000000
16.064711396463561 -3.193176194586272 -1.113047558434479 8.000000000000000
15.109347790151201 -2.960245336644192 -1.106972264787550 8.000000000000000
14.704576556338903 -2.895170507191992 -1.110629640172346 9.000000000000000
14.401033278690601 -2.852571931951111 -1.120891317103817 9.000000000000000
12.700514436077000 -2.495542062701851 -1.161073319489074 8.000000000000000
6.036286395509172 -1.190149721387158 -1.665350033369263 6.000000000000000
4.427032142853185 -0.880549766842144 -1.668714673114554 48.000000000000000
20.172562441711072 -4.014735889318722 4.450413090797801 16.000000000000000
18.046734361477096 -3.651154464033297 3.051586370268854 6.000000000000000
20.544507327469791 -4.137202421583616 2.286263125138195 16.000000000000000
20.568449320890601 -4.124769892496786 1.170693990166678 16.000000000000000
20.564829737846182 -4.117701278241441 0.922576146852169 17.000000000000000
20.566869066202692 -4.118353976829916 0.672274224242412 18.000000000000000
20.577856482009626 -4.114707047746570 0.549879350252683 17.000000000000000
20.583091699435805 -4.153095990868941 0.487106939600963 15.000000000000000
20.569320316166287 -4.112565643152067 0.425126076283255 15.000000000000000
20.581936668413078 -4.153134964195146 0.361878554708449 13.000000000000000
20.575580705343764 -4.114354062413753 0.300339398145594 17.000000000000000
20.584029665913270 -4.153921451863560 0.236260885897575 15.000000000000000
20.588358454190995 -4.111151006394849 0.177559107886320 15.000000000000000
20.588606116910238 -4.148401599080195 0.113887118321265 14.000000000000000
20.593273568202115 -4.112350133394472 0.052231252177429 15.000000000000000
20.573582902874783 -4.145255075577218 -0.011360040237818 17.000000000000000
20.585666103529409 -4.110702924124475 -0.072773168458184 15.000000000000000
20.616410327232682 -4.155284634759184 -0.137891330743143 13.000000000000000
20.611926686366168 -4.110215305469694 -0.196093482809250 16.000000000000000
20.486315764057913 -4.119059756315551 -0.256066008863535 7.000000000000000
20.145648111180773 -4.042590147346679 -0.366001772374526 9.000000000000000
20.143463494224221 -4.042506259845730 -0.488551934793948 9.000000000000000
20.125909763043314 -4.067744078209351 -0.545887978181443 8.000000000000000
20.120674642978372 -4.030123346400387 -0.607392038725743 7.000000000000000
20.142148211318741 -4.072067352830231 -0.670261079975728 8.000000000000000
20.152085489368062 -4.038223203230018 -0.731616269187337 7.000000000000000
20.142104759416771 -4.072435436333187 -0.791983623639300 8.000000000000000
20.147782838101325 -4.037862198311622 -0.854206703830178 9.000000000000000
20.129246498889362 -4.062667749189316 -0.911533892968202 8.000000000000000
20.130747496526773 -4.027075171901799 -0.973080676962095 9.000000000000000
20.100603471136495 -4.056764109528977 -1.032264151622436 9.000000000000000
19.459826842600197 -3.876224182654049 -1.042126265368632 6.000000000000000
18.482332628014589 -3.723920788816201 -1.078984770925027 9.000000000000000
17.835391722760367 -3.597719720191812 -1.075049913729637 10.000000000000000
16.851054080856215 -3.371766522044531 -1.090446935361568 8.000000000000000
16.363755657880805 -3.290542892298021 -1.096280934699063 8.000000000000000
16.012842791486239 -3.239342867995390 -1.109980717593506 9.000000000000000
15.065973782884978 -3.004866863679247 -1.104453909189907 8.000000000000000
14.669216770620810 -2.940172153918937 -1.108847378879645 9.000000000000000
14.389066646127919 -2.902022542236793 -1.121656773728204 9.000000000000000
12.689798592645555 -2.539061779672821 -1.161747430050169 8.000000000000000
11.375097698982856 -2.300178015468504 -1.199225874193847 9.000000000000000
10.447300081898263 -2.104019832990460 -1.253775881028214 8.000000000000000
8.903247369900345 -1.773516077711548 -1.322273035325389 10.000000000000000
6.026478242057743 -1.209363090149814 -1.664353210096413 6.000000000000000
20.317677389892289 -4.121122867923106 4.480833991912006 1.000000000000000
18.051474670029744 -3.717854044569506 3.053349281998627 6.000000000000000
20.543745979373416 -4.211662995640474 2.286515223920279 16.000000000000000
20.563824869393727 -4.198417987815191 1.169974781062301 16.000000000000000
20.560166789937565 -4.191344660074172 0.921716183073815 18.000000000000000
20.562297687632231 -4.191977520219659 0.671271307327750 17.000000000000000
20.567810467934603 -4.230941820843412 0.608913348160498 18.000000000000000
20.573187613342188 -4.188395385490459 0.548806386206755 17.000000000000000
20.586098565628703 -4.228619256933143 0.485989715602840 16.000000000000000
20.568602501225019 -4.187105731053350 0.423966272903079 14.000000000000000
20.596682538007926 -4.231341380008537 0.360558228524527 15.000000000000000
20.571003786612895 -4.188007041410501 0.299124069751434 16.000000000000000
20.579332978089347 -4.227626752972384 0.235007905236687 15.000000000000000
20.599273283599612 -4.188452458912877 0.176022049587349 15.000000000000000
20.587711343481594 -4.223035850924447 0.112490566143655 15.000000000000000
20.592534683536336 -4.186970751851355 0.050787281037484 15.000000000000000
20.588329648814035 -4.223421105095447 -0.013246655180673 16.000000000000000
20.581079123772209 -4.184388272409983 -0.074201340779420 15.000000000000000
20.607787397007609 -4.228205406580074 -0.139235946749469 13.000000000000000
20.607227198431936 -4.184012948305593 -0.197592274596728 17.000000000000000
20.462127223605236 -4.187938510914393 -0.256865827881018 8.000000000000000
20.142438431761619 -4.077956430885493 -0.305049443954974 8.000000000000000
20.133459278202768 -4.112974433083892 -0.367244982195633 9.000000000000000
20.121090471557139 -4.073539658598470 -0.426356345053971 9.000000000000000
20.139107457130752 -4.114668300111326 -0.490205863461248 8.000000000000000
20.117431800615368 -4.138975190400259 -0.547368345002148 8.000000000000000
20.127921799332963 -4.104910794932977 -0.609762183721078 8.000000000000000
20.149260366964644 -4.146958384598214 -0.672703548734303 8.000000000000000
20.139888423299027 -4.108628938680880 -0.732930406600797 7.000000000000000
20.133695764807488 -4.143712223077131 -0.793560840588271 7.000000000000000
20.147303797035740 -4.110925404733294 -0.856336184369030 8.000000000000000
20.136305713011410 -4.137523294236374 -0.914255008687240 9.000000000000000
20.126297752043257 -4.099200816254601 -0.975013511574226 10.000000000000000
20.080522886433602 -4.125194376263728 -1.033036496827050 10.000000000000000
19.424858400714569 -3.938859599530453 -1.041611009462328 6.000000000000000
18.455735536994055 -3.784899049200888 -1.078967034855833 9.000000000000000
17.793606920583603 -3.652745893315142 -1.073582008281449 10.000000000000000
17.208016080193470 -3.484541949939903 -1.074006070809518 8.000000000000000
16.338652374135606 -3.344086209434401 -1.096008809960092 9.000000000000000
15.991823043083677 -3.292567993669884 -1.110048058015914 9.000000000000000
15.034074941774353 -3.052006974771196 -1.103177551943328 8.000000000000000
14.641449710912237 -2.986832728517520 -1.107916854308140 9.000000000000000
14.369195306904690 -2.949560402259877 -1.121543392589325 10.000000000000000
12.667370340421616 -2.579700944540164 -1.160894980443318 8.000000000000000
11.361225949404218 -2.338098504431237 -1.199250800249298 9.000000000000000
10.426478663451828 -2.136737975943120 -1.252387463438416 9.000000000000000
9.625990691815499 -1.964212354037571 -1.265791402825489 10.000000000000000
8.895051798714238 -1.803785470350093 -1.322743376495918 9.000000000000000
8.300542352344646 -1.705516059549844 -1.356047298894700 10.000000000000000
7.970689048251542 -1.640681548474426 -1.575492216803484 8.000000000000000
6.016604164118262 -1.228531169083560 -1.663355588509972 6.000000000000000
4.425357558180350 -0.896328190298114 -1.670648321427760 50.000000000000000
20.328345744499497 -4.197431722092524 4.484999215004787 2.000000000000000
20.546590499935711 -4.287082172226029 2.287102932662897 16.000000000000000
20.562824798045831 -4.273000753283803 1.169380684436212 15.000000000000000
20.566917490034150 -4.267743316108302 0.921091255086827 17.000000000000000
20.581870533266557 -4.308826918845746 0.733453975430159 17.000000000000000
20.565249696681672 -4.267446640540172 0.670329193925497 17.000000000000000
20.562852316349069 -4.304634755203423 0.607873469687327 19.000000000000000
20.576039048383006 -4.263924614051312 0.547748504833609 16.000000000000000
20.584930384310194 -4.303305095912215 0.484875746723956 15.000000000000000
20.575400368225441 -4.263516795813430 0.422773451549814 14.000000000000000
20.591656116530089 -4.305132460375567 0.359376939129959 16.000000000000000
20.573949740391459 -4.263501195875818 0.297828248361997 17.000000000000000
20.586050238501389 -4.304090212234968 0.233598904174562 16.000000000000000
20.594313680847840 -4.262249724101352 0.174735797651785 15.000000000000000
20.586539750960455 -4.297724078959973 0.111093377353642 15.000000000000000
20.595415304580403 -4.262547816032466 0.049255776997350 15.000000000000000
20.587201644937089 -4.298091077366372 -0.014739091708559 16.000000000000000
20.591801707548470 -4.261721840752465 -0.076072694428270 16.000000000000000
20.610581754327701 -4.303849357126303 -0.140948423260516 14.000000000000000
20.606149992765566 -4.258744097429947 -0.199224832241529 17.000000000000000
20.445485719294009 -4.258530396951748 -0.257955679789900 7.000000000000000
20.141780118817060 -4.151052724948848 -0.306753311661294 7.000000000000000
20.148258847025879 -4.189691343188741 -0.369674826738006 8.000000000000000
20.124383353794958 -4.147452104659941 -0.428335549231042 8.000000000000000
20.134487500722731 -4.186855867453090 -0.491859994879203 8.000000000000000
20.116471004992512 -4.212041450120317 -0.549257688287425 8.000000000000000
20.127107473713227 -4.177984809119579 -0.611700608237538 8.000000000000000
20.148313960576694 -4.220124968788241 -0.674690664863576 7.000000000000000
20.142993076875065 -4.182629079801671 -0.735204264044661 7.000000000000000
20.140574550307299 -4.218638817353451 -0.796145523293364 8.000000000000000
20.138779600320696 -4.182232119455065 -0.857938409528684 9.000000000000000
20.131430525146527 -4.209733672376423 -0.916152340996446 9.000000000000000
20.125470119268147 -4.172259506107586 -0.977233619881176 14.000000000000000
20.071851654348052 -4.196286157191466 -1.034703756670248 18.000000000000000
19.409103708561034 -4.005822221117448 -1.042645330051619 6.000000000000000
18.405658028717045 -3.840241868791558 -1.076940312088596 9.000000000000000
17.767151710942898 -3.711242544298742 -1.073492136234789 10.000000000000000
