# This PCD file was generated using the MATLAB® pcwrite function
# from Computer Vision Toolbox®.
# .PCD v.7 - Point Cloud Data file format
VERSION .7
FIELDS x y z intensity
SIZE 8 8 8 8
TYPE F F F F
COUNT 1 1 1 1
WIDTH 632
HEIGHT 1
VIEWPOINT 0 0 0 1 0 0 0
POINTS 632
DATA ascii
9.132968439410359 -20.187701585518234 0.243478882984852 1.000000000000000
9.460087354779505 -20.825338412253235 0.165053611697361 1.000000000000000
9.924769802343571 -21.986828941889936 0.072438685582393 8.000000000000000
10.430002290966309 -23.021728500796492 -0.024582480058173 15.000000000000000
15.353885674922580 -34.067028007547684 -0.494179277487575 2.000000000000000
14.515281566093513 -31.977704574030028 -0.541768975474391 24.000000000000000
15.353686157793001 -34.016204391669035 -0.719602783919273 2.000000000000000
14.493485014399361 -32.014510795100342 -0.862718133486466 8.000000000000000
15.520412391790385 -34.434800321623015 -1.186588057200848 47.000000000000000
14.523904888656054 -31.986589697994706 -1.178435767532431 11.000000000000000
15.507490962442942 -34.354593736937275 -1.413530029927067 9.000000000000000
11.066891059172800 -24.465780602066950 -1.034881581999435 1.000000000000000
15.527172998643190 -34.350002714107553 -1.642106512642107 25.000000000000000
11.081156981017985 -24.558218618333409 -1.200074401055628 5.000000000000000
15.322242044764620 -33.972336085192630 -1.837672070081576 42.000000000000000
14.566697241298543 -32.072893713645406 -1.820824267801318 0.000000000000000
15.307479882556317 -33.888788860121082 -2.060253210576126 0.000000000000000
13.718045199387959 -30.234191545456135 -1.990688724037166 1.000000000000000
11.681464369579189 -25.929161697169786 -1.810657578528773 30.000000000000000
11.722490048516427 -25.877865414542281 -1.896551511077630 15.000000000000000
11.025016483248264 -24.386917387079507 -1.841583820118780 2.000000000000000
11.732753504517159 -25.865940265470996 -2.069636917500295 17.000000000000000
11.683428596852217 -25.861531859620513 -2.152304938212131 18.000000000000000
10.978300076101300 -24.305901448665260 -2.155978848187760 2.000000000000000
10.297574391036093 -22.839432506889928 -2.077532769485077 0.000000000000000
11.716419571574123 -25.855425995973743 -2.411349697987132 19.000000000000000
10.955432078584838 -24.323171504419669 -2.404193772499031 9.000000000000000
11.707861989795576 -25.800642019296696 -2.579635909761385 9.000000000000000
10.389613730916738 -22.946255976780062 -2.472261206351152 4.000000000000000
10.078305209020256 -22.326430461590871 -2.469923788886816 6.000000000000000
9.897022761186106 -21.785460256890062 -2.473913696645711 4.000000000000000
8.565815592938121 -18.915661320375882 -2.473936231585624 7.000000000000000
7.081761582272304 -15.634687442338864 -2.292392100070038 9.000000000000000
5.776164044726542 -12.712094648104415 -2.055307229109375 5.000000000000000
4.071698894271851 -8.969012904046858 -1.905101787150853 4.000000000000000
3.721415963371703 -8.205845559424933 -1.887970274942209 5.000000000000000
3.428712611916154 -7.569852748015195 -1.877058302803690 5.000000000000000
9.961045869274406 -22.253697465254302 3.692317675704877 48.000000000000000
9.872318324379270 -22.003663021143559 1.026038173772826 12.000000000000000
9.850229579274309 -22.016947510580827 0.803956343937836 22.000000000000000
9.873456674788958 -22.029522558304148 0.734053543464816 13.000000000000000
9.836207680081941 -22.037089650635775 0.660493955734981 9.000000000000000
9.878628794263633 -22.010690639470848 0.585748569656523 9.000000000000000
9.834519711289829 -22.003455586276363 0.512305865599590 13.000000000000000
9.791029333049078 -21.778379872830243 0.438389846864950 2.000000000000000
9.602046720533663 -21.432595460688091 0.368024861851942 2.000000000000000
9.037493278797040 -20.167432722971430 0.243680529631716 0.000000000000000
9.430403522205664 -20.964194888985325 0.162873277300001 9.000000000000000
9.823002239115986 -21.969350928425822 0.072932285389211 7.000000000000000
10.326113746980191 -23.009726345630867 -0.024030768254909 14.000000000000000
15.322929272692678 -34.048318388800880 -0.387669966880330 2.000000000000000
15.204849526474566 -34.057530063472825 -0.493161589662958 4.000000000000000
15.292971126345762 -34.068089489687132 -0.607986702943476 2.000000000000000
15.206408693426761 -34.010386802234656 -0.718303047338456 3.000000000000000
15.287143450449403 -34.005784977558640 -0.833309914531461 2.000000000000000
15.235540397052201 -34.028010849037976 -0.945578547799107 3.000000000000000
15.414577110611640 -34.246095096468885 -1.070993357435287 13.000000000000000
15.417884614865560 -34.535856280849444 -1.189666814397082 33.000000000000000
10.936509535074535 -24.440073705174033 -0.867814742534049 15.000000000000000
16.982572462751783 -37.919181318300062 -1.481880713435648 19.000000000000000
15.449221684159120 -34.364695582109682 -1.528375218173919 11.000000000000000
10.902328553302736 -24.387224176450573 -1.186558552922377 32.000000000000000
10.988649051348931 -24.448739243376348 -1.275934949053068 13.000000000000000
10.915441986400477 -24.383194091433790 -1.351362003823608 33.000000000000000
15.253369730681070 -33.955065860212500 -1.951308382482628 8.000000000000000
10.900854332704732 -24.316010559529992 -1.508681442379921 26.000000000000000
13.579154745124834 -30.211884896636683 -1.985785138457168 1.000000000000000
10.916967783212199 -24.413063339164175 -1.676347982496392 19.000000000000000
10.207982093197703 -22.866431658186169 -1.619597296777544 6.000000000000000
10.257401487873681 -22.851423033948144 -1.695444502074193 1.000000000000000
10.226631239652395 -22.878930201095205 -1.774835253378536 10.000000000000000
10.268000383736787 -22.845246668370887 -1.848035219654798 1.000000000000000
10.227995877692880 -22.850129185670120 -1.926124892502677 10.000000000000000
10.251850130081385 -22.862973307321464 -1.999590235998597 3.000000000000000
10.210074130941713 -22.863706693579793 -2.076848690195161 9.000000000000000
10.252665363239126 -22.832949348452299 -2.150745587994264 7.000000000000000
10.202475754946819 -22.815216142795624 -2.225717192245671 10.000000000000000
10.262195725302714 -22.824312884846560 -2.302829930932787 5.000000000000000
10.220071487883926 -22.824215017347207 -2.380711271199046 10.000000000000000
10.249750262500553 -22.850487356618320 -2.456320887315806 8.000000000000000
10.025518444721063 -22.426607074135436 -2.478877039249330 6.000000000000000
9.822635776324285 -21.830269948693900 -2.475852884723835 5.000000000000000
8.509199148827172 -18.974045129697540 -2.478767133690488 7.000000000000000
7.082773670668731 -15.797019932156722 -2.316271291280744 5.000000000000000
5.748600004367963 -12.778868249458704 -2.064539727951474 4.000000000000000
5.003388302217490 -11.118397048881999 -1.939540044836794 4.000000000000000
4.037369096830889 -8.982635418479079 -1.905301872702125 4.000000000000000
3.692662447008857 -8.225451990889276 -1.890064069272677 5.000000000000000
3.400705353960374 -7.584830447552259 -1.878246176989296 5.000000000000000
9.860403597499960 -22.240326820359229 3.685287037454506 44.000000000000000
9.840261911504642 -22.171029934905196 2.353144241141223 13.000000000000000
9.778497673231277 -22.004344509415329 1.024798724074974 13.000000000000000
9.757988662955398 -22.021214864463264 0.803089737343298 24.000000000000000
9.781082944407821 -22.033874225844659 0.733270822984445 14.000000000000000
9.789465192062604 -22.022424180888553 0.585182027920933 9.000000000000000
9.736030925784297 -21.992935342966508 0.511813458026904 13.000000000000000
9.704259112965325 -21.793491374010792 0.437960951845470 2.000000000000000
9.503979494289210 -21.417600458623205 0.367856370737035 1.000000000000000
9.278521103961552 -20.848059741691522 0.304713350070429 1.000000000000000
9.384788441461920 -21.188610642502681 0.230574068128099 2.000000000000000
9.415573321779380 -21.139885647046764 0.160103170267697 0.000000000000000
9.732435519648888 -21.977200777016289 0.072936583487060 8.000000000000000
10.222431930666593 -22.997290052005923 -0.023472354754220 14.000000000000000
10.165676880693255 -22.963100691644108 -0.100476005468477 6.000000000000000
10.186570803531433 -22.969784523688453 -0.172744183214071 2.000000000000000
15.182025606582751 -34.057038365164225 -0.387302631985649 3.000000000000000
10.188676446436723 -22.942282804825801 -0.325967704438571 7.000000000000000
15.151978664948127 -34.076690414634811 -0.607348307374468 3.000000000000000
15.075193909590013 -34.040687607504033 -0.718292703730527 3.000000000000000
15.159090722767235 -34.043722681907568 -0.833513148651251 3.000000000000000
10.161039125334280 -22.902130435710163 -0.627575964002903 2.000000000000000
15.218788914582364 -34.130539552316208 -1.064161091683154 7.000000000000000
10.893925341157736 -24.479702792012876 -0.787525937216208 2.000000000000000
15.301497189006561 -34.410470838551973 -1.299376663870597 2.000000000000000
10.880804634822226 -24.415703403627486 -0.948171870189264 45.000000000000000
10.151587108462385 -22.914973579954967 -1.013819978601438 11.000000000000000
10.166849314256545 -22.908120521851753 -1.085089832906395 4.000000000000000
10.209035345758140 -22.876177963100236 -1.162722468674755 0.000000000000000
10.168327590438858 -22.879441757368600 -1.238121955499495 6.000000000000000
10.125553141171748 -22.878626224698777 -1.314461529434926 7.000000000000000
10.172190602320214 -22.857252351271182 -1.389085485873773 2.000000000000000
10.140593473578976 -22.881801929527189 -1.468805857816240 10.000000000000000
10.163215843867230 -22.891974610936451 -1.541964891935138 4.000000000000000
10.171472167582900 -22.879218539559261 -1.695277013964977 10.000000000000000
10.125012325605429 -22.869958275277448 -1.771108043284263 6.000000000000000
10.175836912255100 -22.858438639485023 -1.846359775431525 10.000000000000000
10.132734369455607 -22.855850019278485 -1.923619295940143 6.000000000000000
10.156458001420955 -22.868788180705092 -1.997006685403379 9.000000000000000
10.114736790587376 -22.869367000597638 -2.074164920795579 4.000000000000000
10.154259348405059 -22.831477405372219 -2.147148209833938 10.000000000000000
10.108878027169304 -22.824535904438338 -2.223264972687740 9.000000000000000
10.162262823908753 -22.819252026494933 -2.298561923957647 11.000000000000000
10.120214193795363 -22.818994134464614 -2.376305192497235 11.000000000000000
10.145029680477196 -22.834426184688080 -2.450433940379702 8.000000000000000
9.958149545444218 -22.493820922255242 -2.483606957993080 6.000000000000000
9.762114869784840 -21.907690922497039 -2.482116183109420 5.000000000000000
8.456916280081181 -19.043215150615179 -2.485246497429652 7.000000000000000
7.099567142787767 -15.999637847716226 -2.346964471830407 5.000000000000000
5.703986463209097 -12.805595306992233 -2.066201527818490 4.000000000000000
4.972032156352538 -11.160687775779396 -1.945001586797453 4.000000000000000
4.004451549084847 -8.999752916285626 -1.906390163845556 4.000000000000000
3.660928010660939 -8.237755699365680 -1.890244774934103 5.000000000000000
3.371206699067357 -7.596119550360365 -1.878412052273353 5.000000000000000
9.764600234130056 -22.237502730153473 3.679769652396639 47.000000000000000
9.727461857379536 -22.127528375055718 2.346481189795802 42.000000000000000
9.683231820882884 -22.000964913628437 1.023482405940765 12.000000000000000
9.659617396268921 -22.010373305700977 0.802041504515997 21.000000000000000
9.684127827084138 -22.026793211736344 0.732388845081259 14.000000000000000
9.743859539888231 -22.041292947069120 0.659808656451075 9.000000000000000
9.697220559546430 -22.026444831737916 0.584597177078120 10.000000000000000
9.640836902354039 -21.989379271675435 0.511327041333911 13.000000000000000
9.626860772887211 -21.830358779030728 0.437466846960078 2.000000000000000
9.421680747347574 -21.439045389109829 0.367454981020274 1.000000000000000
9.230808859201581 -20.946090390873486 0.303613780063363 1.000000000000000
9.405588237501600 -21.452969193074729 0.227134037811376 8.000000000000000
9.664545258085214 -21.941929599756769 0.147304565378238 11.000000000000000
9.641931011013071 -21.984697086663164 0.072946107227613 9.000000000000000
10.122080832364093 -22.991771258444903 -0.023070555297072 11.000000000000000
10.063960407661529 -22.953692812578328 -0.099844713676162 12.000000000000000
10.090964584702652 -22.975179357285700 -0.172408746153585 10.000000000000000
10.146922156488708 -22.975296288671839 -0.250142096402853 7.000000000000000
15.078209349024355 -34.098831920908054 -0.493614823012245 3.000000000000000
15.014261054745715 -34.092062483927116 -0.606931800503589 3.000000000000000
10.108610617379508 -22.952451714789273 -0.479448696365640 11.000000000000000
15.016751088194313 -34.048136697276135 -0.832434926462416 3.000000000000000
10.084313923406404 -22.951628954426976 -0.628792559266726 11.000000000000000
10.136555853253613 -22.943196597691479 -0.707348371845570 9.000000000000000
15.212057319608604 -34.398079279554366 -1.181276094512550 41.000000000000000
10.102908092974083 -22.931444852924010 -0.936091845455367 10.000000000000000
10.051560944671348 -22.909264810086192 -1.011726817199618 5.000000000000000
10.079194344118752 -22.931883163852902 -1.084859138895533 9.000000000000000
10.123041496732908 -22.903786259364633 -1.162717896983568 6.000000000000000
10.079233229889152 -22.899553934373948 -1.237548250865796 6.000000000000000
10.055100616209744 -22.942701194834228 -1.317232364459685 1.000000000000000
10.087862604923139 -22.888391277299078 -1.389296341169667 7.000000000000000
10.074043910066372 -22.912067246455337 -1.541204993927028 8.000000000000000
10.118882566900654 -22.886709232519930 -1.618792474700345 7.000000000000000
10.062152659373325 -22.851656641068228 -1.689985310623238 1.000000000000000
10.085259223991720 -22.874929863874065 -1.845041368265615 2.000000000000000
10.070454034666742 -22.896213305503640 -1.996741275630023 0.000000000000000
10.076166539866623 -22.877232062820315 -2.148891705452651 0.000000000000000
10.013791476676653 -22.829825013038398 -2.220383808848470 8.000000000000000
10.067149055748216 -22.824747957536914 -2.295589266081280 11.000000000000000
10.018966551419291 -22.809705613744615 -2.371446243945320 11.000000000000000
10.048286927891048 -22.836209558087837 -2.446825755113021 8.000000000000000
9.885801549143501 -22.549866125698582 -2.486925295843567 6.000000000000000
9.690321772017054 -21.959373460156741 -2.485010631712346 5.000000000000000
8.399647541097949 -19.101304605271185 -2.490072939084528 7.000000000000000
7.071014874611676 -16.096759195618155 -2.359703749866731 6.000000000000000
5.663755249561530 -12.843101502865737 -2.069925401225624 4.000000000000000
4.927077328940011 -11.170160687314906 -1.943757372206776 4.000000000000000
3.971460768239648 -9.016761145295378 -1.907476836852070 4.000000000000000
3.627718245117357 -8.246338016232801 -1.889467930542652 5.000000000000000
3.344492393696551 -7.614506509358326 -1.880617721505052 5.000000000000000
9.670463325400009 -22.237952847518788 3.674759847127760 46.000000000000000
9.633555405807643 -22.127680524758436 2.343349862114895 42.000000000000000
9.585016431029224 -21.989821116797444 1.022006937134404 12.000000000000000
9.566061114008971 -22.010197851954459 0.801139350204086 17.000000000000000
9.596595871646857 -22.041468278928136 0.731723409063387 14.000000000000000
9.645396173808345 -22.030382375254288 0.659033668971780 9.000000000000000
9.597337115782805 -22.011654594407819 0.583959210912062 9.000000000000000
9.544678724072414 -21.855909471993915 0.437010854349918 2.000000000000000
9.334719017563568 -21.449114394538601 0.367130254523374 1.000000000000000
9.245796125870562 -21.195359567560935 0.301064898023651 2.000000000000000
9.578840402631252 -21.960234197535982 0.147056123564777 12.000000000000000
9.553028714716094 -21.995518356832587 0.072892110628705 9.000000000000000
10.015699544508095 -22.971107416191874 -0.022334214011991 11.000000000000000
9.970140863504930 -22.962312716080788 -0.099681706202681 11.000000000000000
9.998526703638815 -22.987589127930761 -0.172281826789950 7.000000000000000
10.051348956125606 -22.980549904662816 -0.249709481018830 11.000000000000000
10.057657787852815 -22.963764416745786 -0.403429404047654 11.000000000000000
10.014724623766853 -22.961256661328466 -0.478878617012233 8.000000000000000
9.999650831599178 -22.982460654807536 -0.629124428851847 0.000000000000000
10.039525261263622 -22.944755020471565 -0.706160180660268 8.000000000000000
10.035440464287031 -22.903637424488860 -0.857679935683843 5.000000000000000
10.013716812392385 -22.951298715449028 -0.935699116260397 3.000000000000000
10.615866092738482 -24.446823413083628 -1.184733504541159 0.000000000000000
10.625556975646106 -24.461849827527832 -1.672585582789298 0.000000000000000
12.217696026413892 -28.101453838901993 -2.084171022304593 4.000000000000000
10.717419865737206 -24.505191055540848 -1.925675686413689 0.000000000000000
10.670552572400691 -24.499558031585000 -2.003545006883046 0.000000000000000
10.728936384447653 -24.497156555513261 -2.089246815943990 0.000000000000000
10.668867484163110 -24.557385308283859 -2.169023796248372 0.000000000000000
10.714850316732836 -24.525134730512246 -2.251372510947505 0.000000000000000
9.948609585579527 -22.805326422196142 -2.137467348299441 0.000000000000000
9.222487268050681 -21.168573891737875 -2.025241132439775 0.000000000000000
9.967494394340143 -22.818885568870051 -2.291309288527144 10.000000000000000
9.254796308413937 -21.216022734313032 -2.173478360368137 2.000000000000000
9.251359042834661 -21.166384215236441 -2.234553060285145 0.000000000000000
9.248642245697289 -21.252976862403624 -2.316934462959085 9.000000000000000
9.215609816949193 -21.051522750690761 -2.361872166166597 0.000000000000000
8.348157437944543 -19.173868897579332 -2.497098834017724 8.000000000000000
7.062933393667049 -16.245037155751756 -2.381113024956348 7.000000000000000
5.632256780998269 -12.902390037159385 -2.077778282601291 4.000000000000000
4.892416168179442 -11.204974731734952 -1.947726328180679 4.000000000000000
3.936960370796911 -9.030033677337784 -1.907671711227024 4.000000000000000
3.598744267623593 -8.265647549870330 -1.891557302449121 6.000000000000000
3.314887902912883 -7.625580118497208 -1.880779279373682 5.000000000000000
9.577956249641900 -22.241691954486559 3.670258218115675 45.000000000000000
9.539761320369536 -22.127459119014347 2.340224529220939 39.000000000000000
9.490057408590724 -21.985658730976720 1.020702239804673 12.000000000000000
9.474149813893909 -22.013343119156215 0.800289671320124 10.000000000000000
9.495305279099142 -22.022550549858618 0.730744466333579 13.000000000000000
9.554812968399647 -22.037524917188527 0.658383131952367 9.000000000000000
9.500737439175325 -22.003833879947205 0.583350773491902 9.000000000000000
9.553482769518894 -22.003882881351625 0.510848046691273 14.000000000000000
9.457827405662403 -21.870078885320805 0.436596090067065 3.000000000000000
9.250855477936197 -21.466240931269787 0.366762115561468 1.000000000000000
9.294350765465255 -21.529993114798962 0.297696200567356 2.000000000000000
9.456949090440714 -21.795273859287967 0.222697263863900 9.000000000000000
9.485459796002132 -21.959743944650285 0.147108199429797 12.000000000000000
9.920325601574413 -22.975839843965090 -0.022170848351903 10.000000000000000
9.898470982212643 -22.981171340379809 -0.171619486708698 7.000000000000000
9.899347674853624 -22.950052923289139 -0.324112967591105 0.000000000000000
9.868997637166634 -22.902241710534625 -0.624150672167122 0.000000000000000
9.897877740822423 -22.938865456590232 -0.780300597185330 0.000000000000000
10.572711262482970 -24.423423945604149 -0.943839641139739 0.000000000000000
10.524061610366008 -24.412671084401179 -1.023018594725594 0.000000000000000
10.563353333467212 -24.365616884876040 -1.103451007240960 0.000000000000000
10.605209847195603 -24.527529740451776 -1.273189922051257 0.000000000000000
10.579398670155499 -24.431403255207123 -1.429545301649728 0.000000000000000
10.550120821489600 -24.467277995163091 -1.511126378914498 0.000000000000000
11.817281971627114 -27.354948654196193 -1.837075437330292 1.000000000000000
12.095045945128586 -28.091877197190083 -2.080170105566007 4.000000000000000
11.169494369075901 -25.835995027286327 -2.050616563029318 0.000000000000000
9.192004770630090 -21.247541141677853 -1.816635033626455 1.000000000000000
9.159083109941282 -21.261901252280929 -1.889711837535833 16.000000000000000
9.203363362415669 -21.244761236429373 -1.959395169328204 6.000000000000000
9.183586220946664 -21.291978432013920 -2.036290506950578 21.000000000000000
9.210985150879008 -21.234085195478070 -2.100036495084261 3.000000000000000
9.211216262163935 -21.328439587258657 -2.183773964909953 26.000000000000000
9.194185535221491 -21.245721128158614 -2.240968566835103 12.000000000000000
9.203237108387674 -21.361686248449004 -2.327263560102598 17.000000000000000
9.247274594164187 -21.343366268964505 -2.396492383879984 13.000000000000000
8.290226143025503 -19.231656376293024 -2.501919883078436 8.000000000000000
7.041960765747027 -16.364194847902276 -2.397569809733482 10.000000000000000
5.591557056865301 -12.939702941303370 -2.081499751013617 4.000000000000000
4.860486498360456 -11.246991121059940 -1.953184153548715 4.000000000000000
3.906682706789208 -9.054076757993073 -1.910535465066615 4.000000000000000
3.565460483398083 -8.273983259769807 -1.890775582115908 6.000000000000000
3.283856121322820 -7.632959172792693 -1.879919876629248 5.000000000000000
9.476508950677113 -22.223029565244492 3.662750115879660 44.000000000000000
9.441542129266290 -22.115783491955249 2.336224804158869 39.000000000000000
9.398277775042107 -21.988506595844829 1.019568740640929 12.000000000000000
9.044299587997294 -21.190721993198277 0.789038355490358 37.000000000000000
9.057470389179960 -21.181587117371052 0.721933343684161 1.000000000000000
9.459720233370815 -22.033220812967983 0.657667254666059 9.000000000000000
9.410383966224359 -22.010414204603407 0.582794959651097 9.000000000000000
9.452399391780187 -21.984794184811644 0.510373527964318 13.000000000000000
9.366426356275161 -21.872822617791002 0.436222919604113 3.000000000000000
9.186695804433057 -21.531170347001581 0.366085515289077 2.000000000000000
9.264802697011721 -21.680187194102125 0.296093105609954 3.000000000000000
9.445028105208362 -21.990302132187864 0.220142170913562 9.000000000000000
9.393714752204200 -21.962575663902399 0.147107557424931 12.000000000000000
9.453475347734150 -21.980134978913107 0.073338740323353 10.000000000000000
9.388296976811532 -21.918786758302900 0.001804521978206 0.000000000000000
9.871792974565217 -22.959482117577302 -0.099228289503441 10.000000000000000
9.798578311386796 -22.974346442366343 -0.170950994225684 7.000000000000000
9.798044015439656 -22.939545263086178 -0.323049254239707 0.000000000000000
9.792116129361677 -22.950796072379049 -0.625355119950897 0.000000000000000
9.850367685238112 -22.957788797231306 -0.704333076158019 0.000000000000000
9.805710415445724 -22.950557484837496 -0.779591531774294 0.000000000000000
9.854219593197993 -22.935116731232455 -0.856551031540093 0.000000000000000
9.826155663449892 -22.967851918265669 -0.933552483248105 0.000000000000000
10.506091185831712 -24.431555896832737 -1.181807531699377 0.000000000000000
10.530273548208235 -24.597062941554878 -1.276058830552669 0.000000000000000
12.126296389384992 -28.297737579204504 -1.630656607477367 1.000000000000000
11.556941993608289 -27.044935829015706 -1.627994900951411 1.000000000000000
10.564598203429821 -24.564546627521462 -1.678840835591316 0.000000000000000
11.984782808136732 -28.111274856106316 -2.078800504862787 5.000000000000000
12.044428618963508 -28.091360958271796 -2.170748938541542 5.000000000000000
11.070177265389580 -25.859558033621880 -2.049762103648385 0.000000000000000
9.111746031753933 -21.271591429194086 -1.816321980896281 11.000000000000000
9.086329772186643 -21.304254703741297 -1.891371784032440 5.000000000000000
9.139786664179612 -21.309327327652344 -1.963559013679996 11.000000000000000
9.077577981026916 -21.253434204367512 -2.028700405620407 5.000000000000000
9.174751424144532 -21.364827343780149 -2.112238532817623 11.000000000000000
9.091494712162795 -21.256959981748537 -2.171711456213864 2.000000000000000
9.154687431268419 -21.369036483737833 -2.252875179973331 17.000000000000000
9.059406535113508 -21.231374941834751 -2.307053561430209 12.000000000000000
9.255848748064391 -21.584280438710071 -2.424382167962396 8.000000000000000
8.236475044636872 -19.300295444572232 -2.508391255683177 9.000000000000000
5.550661868155462 -12.976899058098214 -2.085219447922281 5.000000000000000
4.818195089522275 -11.263352369658142 -1.953424177962222 4.000000000000000
3.870639009603412 -9.063467895815412 -1.909835048198546 4.000000000000000
3.537729173000043 -8.296720419898516 -1.893818123877355 6.000000000000000
9.382764456133101 -22.222332060805833 3.657757456587985 43.000000000000000
9.351021413838517 -22.122187538459706 2.333697612252368 41.000000000000000
9.029527241923725 -21.309305303879494 1.003301990151561 21.000000000000000
8.956957942283942 -21.195659539927110 0.788265339887426 11.000000000000000
8.994138425241584 -21.245888883984577 0.721794544519884 29.000000000000000
9.056362773631053 -21.273073533425737 0.652161201202918 1.000000000000000
9.041393442745955 -21.331140093123373 0.580129581800306 27.000000000000000
9.357618518865829 -21.980088408637922 0.509904179979855 13.000000000000000
9.278134670392841 -21.882613866543192 0.435830626391687 3.000000000000000
9.216906617823218 -21.829428813911033 0.363889629686531 4.000000000000000
9.246351636245729 -21.860096532254921 0.294204291587240 5.000000000000000
9.353225630005936 -21.992971711781685 0.220046576986114 9.000000000000000
9.300556597050839 -21.961345594034800 0.147170652621617 12.000000000000000
9.355657519737610 -21.968036462094986 0.073720150372131 10.000000000000000
9.302838627046318 -21.936067215240048 0.001668782082665 0.000000000000000
9.775099979749186 -22.959955240413269 -0.098863769080939 11.000000000000000
9.697346765546076 -22.963410243221208 -0.170170479814544 8.000000000000000
9.772699064905558 -23.012561768819207 -0.248968735440051 0.000000000000000
9.288660673963809 -21.925067821020864 -0.286751781157033 0.000000000000000
9.257753677298588 -21.915766815236605 -0.506249259649547 1.000000000000000
9.726427588167313 -22.891626268429214 -0.699727019670998 0.000000000000000
9.769674280207653 -22.965135993321169 -0.856831080023780 0.000000000000000
9.249038574539915 -21.887115947738554 -0.939656347175491 5.000000000000000
9.275733492544479 -21.910474007627379 -1.009425798921434 0.000000000000000
12.282320546391107 -29.010366299931540 -1.486561045891571 0.000000000000000
11.490290472315269 -27.040117718727572 -1.535788349243939 0.000000000000000
10.324078350444283 -24.311564255633535 -1.415872292559077 0.000000000000000
9.725491469715939 -22.950903513661803 -1.385387983815559 0.000000000000000
9.268218411986924 -21.884702550466230 -1.443077242587929 0.000000000000000
11.016433686396075 -25.917552811324605 -1.792831585282988 0.000000000000000
9.264292294439826 -21.843448218239427 -1.586075736153513 7.000000000000000
11.934210397529569 -28.110569595668686 -2.169303974913987 5.000000000000000
9.235564093468978 -21.742525159439310 -1.721425007523764 5.000000000000000
9.040426148623594 -21.317479195066710 -1.818332600754405 9.000000000000000
9.068362686565141 -21.355299037242244 -1.965663035096827 10.000000000000000
9.067637582853086 -21.450311900948584 -2.048219970565970 15.000000000000000
9.050581841354772 -21.282054173736437 -2.099210380103970 9.000000000000000
9.057679849927574 -21.394806190922701 -2.185130528302939 7.000000000000000
9.029095180406989 -21.282532494241391 -2.238685556814149 8.000000000000000
9.022484903849406 -21.361728516046746 -2.320194476921657 24.000000000000000
9.030589407698505 -21.255534999779172 -2.377682151456010 18.000000000000000
8.174928578751382 -19.350433044125534 -2.512107099575335 8.000000000000000
6.998048862647458 -16.428447244865396 -2.404735170173187 14.000000000000000
5.515370341743533 -13.028633948907661 -2.091691733574939 4.000000000000000
4.784446283735337 -11.301520307019636 -1.958133819359032 4.000000000000000
3.840165693161840 -9.087309749907478 -1.912695828161954 4.000000000000000
3.252810449230330 -7.640225123850725 -1.879058780383012 5.000000000000000
9.257590911429270 -22.120838516393690 2.330588947565839 41.000000000000000
9.236061334360594 -22.052743361385790 1.454522902125925 1.000000000000000
8.932849423469156 -21.291920708134960 1.001781461141713 7.000000000000000
8.874157283798443 -21.211405702869722 0.787634790367078 36.000000000000000
8.893183299200004 -21.217229504875331 0.720779487746868 20.000000000000000
8.961198345592081 -21.259506848607863 0.651426382747451 28.000000000000000
8.929671481044062 -21.276683206745325 0.579415931963925 12.000000000000000
9.052824411366890 -21.455928952096031 0.509493269057331 26.000000000000000
9.173432236854273 -21.851257885589874 0.435580281843398 2.000000000000000
9.195430065810315 -21.962211253292796 0.293061982926499 9.000000000000000
9.260017721094318 -21.991564700819783 0.220004566129843 10.000000000000000
9.207517393364560 -21.959743119126486 0.147239120686974 11.000000000000000
9.267043524917240 -21.977776538616197 0.073680090105211 10.000000000000000
9.227842623156873 -21.978990875836963 0.000956147294453 1.000000000000000
9.681528604152383 -22.967442345168546 -0.098681872023220 11.000000000000000
9.209992739631874 -21.991174415265203 -0.141859216123806 22.000000000000000
9.245676067842732 -21.948835289579641 -0.214471671351279 0.000000000000000
9.191247309415568 -21.912315342138964 -0.285655871686165 18.000000000000000
9.233683717258931 -21.888181114954730 -0.358958613205276 0.000000000000000
9.158958692027053 -21.899196710394822 -0.504551758314354 22.000000000000000
9.179936217677342 -21.908964298572506 -0.573432193131562 15.000000000000000
9.232948410364127 -21.910020087178300 -0.648427664130468 1.000000000000000
9.185553524464199 -21.890882465940418 -0.719506227035427 19.000000000000000
9.243969686877977 -21.906495399341850 -0.794546813511056 4.000000000000000
9.199409735957490 -21.894133127959950 -0.865360181101158 9.000000000000000
9.160756025755418 -21.896496613836952 -0.938695863455514 19.000000000000000
9.173873821539964 -21.886620834047005 -1.006180572329900 17.000000000000000
9.223348020925000 -21.879029191188227 -1.081365612074928 6.000000000000000
9.182981102390285 -21.877276532934378 -1.152643699941503 17.000000000000000
9.228887347903667 -21.862077707964264 -1.226010266836556 10.000000000000000
14.251857539354262 -33.955144559075350 -1.931394284410586 0.000000000000000
9.152261741411689 -21.868327690251661 -1.370724174302684 10.000000000000000
9.169425955802973 -21.868292421864972 -1.439410285705609 16.000000000000000
9.204910915879987 -21.826543872545063 -1.511401389204170 9.000000000000000
9.165646715955955 -21.827059386625301 -1.582097483792071 11.000000000000000
9.159648448164878 -21.781476412629427 -1.722615303297218 10.000000000000000
9.094889849283065 -21.718496430441313 -1.789591838588863 7.000000000000000
9.040254463536789 -21.540407278800338 -1.838966756030088 5.000000000000000
9.062686487736505 -21.468098405930711 -1.906229900050497 22.000000000000000
9.051784166832455 -21.537572898578617 -1.982996040718546 16.000000000000000
9.047533930821457 -21.625239854102933 -2.065199604220278 9.000000000000000
9.040292070853246 -21.478882586374326 -2.119239703576915 21.000000000000000
9.031909196345005 -21.554821486228033 -2.201235752299183 10.000000000000000
9.017025884596553 -21.475566842419187 -2.259287477934817 15.000000000000000
9.027604653995283 -21.470517265389741 -2.402201006218227 17.000000000000000
6.966968319628112 -16.525628154699273 -2.417475025146238 25.000000000000000
5.474033629746386 -13.065613547713935 -2.095408147249918 4.000000000000000
4.746224363064660 -11.328589455426185 -1.960604149779192 4.000000000000000
4.205386797801454 -10.041944982701901 -1.938658983402912 4.000000000000000
3.502979322334128 -8.301222343373034 -1.892078374330557 5.000000000000000
3.223112232875713 -7.650997970622651 -1.879216987016711 5.000000000000000
9.292094237001514 -22.228625276637295 3.653774345074213 44.000000000000000
9.168706510207025 -22.130234111247891 2.328365670011985 39.000000000000000
9.144387754794666 -22.054596204589004 1.452838899142400 45.000000000000000
8.851198683788787 -21.311283027947987 1.001088386356772 20.000000000000000
8.819144031735098 -21.255020534234671 0.720404421474417 25.000000000000000
8.867721140861368 -21.249265018225312 0.650719755634272 19.000000000000000
8.849528901711722 -21.299748714933948 0.578946669040035 27.000000000000000
8.928895856781855 -21.371755649049373 0.509055528277566 2.000000000000000
9.064610483775414 -21.808299818312097 0.435374841545303 4.000000000000000
9.155715123917421 -21.905468868176762 0.363140702317565 4.000000000000000
9.111374142871560 -21.982471549574537 0.292708270149549 10.000000000000000
9.166929291636691 -21.989793104249419 0.219967235183303 9.000000000000000
9.111639104685004 -21.950338894806009 0.147432240898179 12.000000000000000
9.168053387753485 -21.961190998444835 0.074144438176988 11.000000000000000
9.122998353313806 -21.947383707850122 0.001911155216436 19.000000000000000
9.170691157246683 -21.935576658132291 -0.071844108513716 17.000000000000000
9.109547897644520 -21.970621558575278 -0.140831781609199 15.000000000000000
9.148257945706872 -21.935890361583382 -0.213516333839709 18.000000000000000
9.111801385551901 -21.943722561408801 -0.286115931811181 11.000000000000000
9.151356633031543 -21.912315491096422 -0.359135292037579 22.000000000000000
9.116263910846135 -21.923348690004516 -0.431303800241632 23.000000000000000
9.100455911413675 -21.940320643967244 -0.573892098662896 14.000000000000000
9.140106311535748 -21.908192384992613 -0.647189503380259 22.000000000000000
9.103199112856585 -21.914848625822703 -0.719564110853797 14.000000000000000
9.148171331893344 -21.897311071658670 -0.792666980998878 21.000000000000000
9.112616763266423 -21.907023010746745 -0.864694318378450 16.000000000000000
14.868082516748215 -35.627982110331480 -1.466188224706056 2.000000000000000
9.097402432747209 -21.925374123576731 -1.007135241282241 10.000000000000000
9.140990925632765 -21.903140085203095 -1.081309406006901 15.000000000000000
9.099174230257610 -21.897536077722872 -1.152288885327273 9.000000000000000
9.145123196024532 -21.882510325748314 -1.225621009226620 14.000000000000000
9.110602508106767 -21.894760242615718 -1.296965679160941 12.000000000000000
9.056733647666997 -21.858839847215968 -1.367799200963892 10.000000000000000
9.088565583696180 -21.895908406491991 -1.439551634657941 11.000000000000000
9.115304310440477 -21.832098821545678 -1.509552790526643 10.000000000000000
9.080520414406115 -21.843573547257876 -1.581189183103806 10.000000000000000
9.127355258416245 -21.831206857073258 -1.655225831284270 12.000000000000000
9.090963302251641 -21.838663643790252 -1.725627669073780 11.000000000000000
9.054381272153220 -21.845764479720270 -1.799857018607871 19.000000000000000
9.057789610389717 -21.811669197278061 -1.864648621690334 12.000000000000000
9.080951695577617 -21.739179801392883 -1.932694867461555 5.000000000000000
9.075343158423124 -21.823465619738030 -2.011860505551593 16.000000000000000
9.047926386831957 -21.723899168247584 -2.144928213458930 6.000000000000000
9.028657253614622 -21.774011602483807 -2.224500163280918 12.000000000000000
9.003713725202234 -21.668772691519226 -2.279889943224805 16.000000000000000
9.017284951611629 -21.573211338368345 -2.343675883641763 22.000000000000000
9.020277458984156 -21.678369148204855 -2.425760476365808 11.000000000000000
8.121947717371226 -19.422462319995084 -2.519124872169410 9.000000000000000
6.916392764749617 -16.575031732117566 -2.422159514824103 30.000000000000000
5.443895061630554 -13.131846692679954 -2.104630468957332 4.000000000000000
4.705052462597388 -11.348220735103178 -1.961583671200385 5.000000000000000
3.805413612463541 -9.100123554243153 -1.912883868023207 4.000000000000000
3.470972935986007 -8.312863815998517 -1.892249221560202 5.000000000000000
3.193375212494412 -7.661666798249138 -1.879373616379843 5.000000000000000
9.198558019299471 -22.227191245557901 3.648793112149072 43.000000000000000
9.052810346975724 -22.056089993421473 1.451160100219547 43.000000000000000
8.835529657893664 -21.497763990087119 1.004091622382932 13.000000000000000
8.854864453287714 -21.386674264137994 0.789005749211266 17.000000000000000
8.813813827781498 -21.467502671174305 0.721676230586886 13.000000000000000
8.797988927567401 -21.298140570265353 0.650391514193129 18.000000000000000
8.794280022984685 -21.385782531585132 0.578672175835246 13.000000000000000
8.839591962532376 -21.372506638985950 0.508614341610684 17.000000000000000
9.003232732339322 -21.883907776255601 0.434772534208518 6.000000000000000
9.054209584882996 -21.880995531040050 0.363051456633749 5.000000000000000
9.018491076830053 -21.980105356664275 0.292572035203280 9.000000000000000
9.079856936999585 -22.002523006496826 0.219745033653466 9.000000000000000
9.023274071375225 -21.959145240955685 0.147333255872897 11.000000000000000
9.075191750172896 -21.959060998535794 0.074329347428265 12.000000000000000
9.040532780446425 -21.971114990406114 0.001623714294979 13.000000000000000
9.091219525497314 -21.966911569268603 -0.072299292668518 11.000000000000000
9.016683687129749 -21.968262711763398 -0.140332228762369 9.000000000000000
9.074609350578244 -21.982016841601634 -0.214448966879103 10.000000000000000
9.019035211092646 -21.941383689369097 -0.285399873079885 9.000000000000000
9.070445197904203 -21.939868384704642 -0.359449982985290 11.000000000000000
9.036800377431833 -21.954494829393521 -0.431757540000811 10.000000000000000
9.082545849912375 -21.937918939134356 -0.505338384139472 10.000000000000000
9.010608884727210 -21.945386833385250 -0.573110390378920 15.000000000000000
9.059166116418650 -21.935708019507203 -0.647459080313329 14.000000000000000
9.009050451129276 -21.908790710042247 -0.718009392698186 19.000000000000000
9.064342738733030 -21.917431315293673 -0.792484646556758 10.000000000000000
9.075470779135133 -21.912957254511998 -0.938203730161374 10.000000000000000
9.001735015581993 -21.915599331017020 -1.004868897819963 10.000000000000000
9.051217834708112 -21.908400473235435 -1.079949846792172 9.000000000000000
9.003607897961853 -21.887792724749144 -1.149757069903480 9.000000000000000
9.053959642740253 -21.884093345833705 -1.223809776623741 9.000000000000000
9.013582458781297 -21.881375554501858 -1.293878162522315 10.000000000000000
8.997382484579701 -21.897284247088045 -1.437463969077873 11.000000000000000
9.018417928212708 -21.818778672861892 -1.506048302140055 10.000000000000000
8.985136400413676 -21.833823539437589 -1.577883188545379 10.000000000000000
9.031948094758320 -21.821664964023054 -1.651789435103360 12.000000000000000
9.001465666052621 -21.843796424494684 -1.723522558422826 11.000000000000000
8.959070672333519 -21.835942586371505 -1.796153320898237 16.000000000000000
8.980041407845381 -21.846316498706482 -1.865492493599426 16.000000000000000
9.029899352754203 -21.840492491713135 -1.940754970331160 14.000000000000000
8.987341891571871 -21.832267771857374 -2.009843464104780 13.000000000000000
9.033660112774678 -21.818780505017131 -2.084300426862018 11.000000000000000
8.992484448425884 -21.813962718153292 -2.152342112468550 12.000000000000000
8.935057561359528 -21.767873770955713 -2.220473432080613 12.000000000000000
8.955609892535900 -21.777152555830973 -2.289961934396053 10.000000000000000
9.007781090221620 -21.777540165442460 -2.366220410962615 10.000000000000000
8.956131059015012 -21.746113562202240 -2.431026703049078 9.000000000000000
8.061274721998220 -19.475944741686110 -2.523386424777308 9.000000000000000
6.854029376658131 -16.594854629609358 -2.421884074400773 42.000000000000000
4.665192452497731 -11.371386709088831 -1.963306634022202 5.000000000000000
3.769243886561081 -9.109164916568295 -1.912179504617236 5.000000000000000
3.441632972572146 -8.331674093337496 -1.894331146291009 5.000000000000000
3.166272637245695 -7.679490328109873 -1.881570887477803 5.000000000000000
9.106594412043975 -22.229078494977784 3.644318616415247 46.000000000000000
9.072553944146184 -22.120733215652354 2.324681084803777 41.000000000000000
8.888452240845254 -21.863227486783352 1.011027140050831 13.000000000000000
8.846164791100756 -21.591851843536585 0.790745901606387 15.000000000000000
8.790798017796259 -21.506930725893774 0.651064064675078 12.000000000000000
8.790903230114045 -21.605838897822327 0.578799830726591 12.000000000000000
8.811801571972095 -21.529265915372765 0.508154954673437 15.000000000000000
8.956002817401719 -21.996613547549412 0.434045561075429 11.000000000000000
8.995453966274248 -21.964035615217590 0.362260198128380 9.000000000000000
8.982582537401962 -21.988856827067949 0.219861364876586 9.000000000000000
8.930590599201379 -21.956437031594277 0.147418323351674 11.000000000000000
8.980990354176024 -21.952827116132777 0.074593081815422 11.000000000000000
8.943440549959037 -21.957303746183136 0.002173969668551 13.000000000000000
8.994063560236953 -21.953317443025462 -0.071606145194329 10.000000000000000
8.975924932643672 -21.964629129562169 -0.213364540443637 10.000000000000000
8.926394211201272 -21.938675492745006 -0.284678232033543 10.000000000000000
8.980677347031632 -21.944799716305972 -0.358904335986919 10.000000000000000
8.941203917857210 -21.944418692277722 -0.430512153750090 11.000000000000000
8.985472469478104 -21.924322433048143 -0.503795962798075 9.000000000000000
8.917930506698095 -21.942659990057294 -0.571969144759798 17.000000000000000
8.965005793697228 -21.929461814011162 -0.646021223448091 16.000000000000000
8.917959427747380 -21.909795272760689 -0.716851195163805 19.000000000000000
8.967328582382583 -21.903774901366937 -0.790378587049608 18.000000000000000
8.936177369873018 -21.924387020792153 -0.862899743284681 18.000000000000000
8.982862321330991 -21.910524363372794 -0.936522827262058 10.000000000000000
8.909146496547146 -21.912873216848691 -1.003092333649656 9.000000000000000
8.958599214170505 -21.905879777781557 -1.078065291069988 9.000000000000000
8.914029549062189 -21.892529022118833 -1.148306173288099 9.000000000000000
8.961434337564931 -21.881591844045083 -1.221707591015125 10.000000000000000
8.925491225356883 -21.889877954904009 -1.292555598716087 10.000000000000000
8.962843024670253 -21.852671943820127 -1.365175608819482 10.000000000000000
8.904846725413590 -21.894587058249872 -1.435052960168925 11.000000000000000
8.927561777891860 -21.819899709637252 -1.503858689611249 10.000000000000000
8.895734552092362 -21.838532135819381 -1.575939161005972 11.000000000000000
8.941092431552754 -21.822843161449974 -1.649406716120718 13.000000000000000
8.907682865195746 -21.837454346650759 -1.720315945890190 10.000000000000000
8.886230429387474 -21.839904128079393 -1.862061263667890 11.000000000000000
8.941869172749897 -21.849112192602689 -1.938806051914083 10.000000000000000
8.889240701014860 -21.814795874067393 -2.004938112737988 11.000000000000000
8.944264603986470 -21.823719447503631 -2.081781461048652 10.000000000000000
8.897353955881487 -21.803954084028756 -2.148000913657483 12.000000000000000
8.863487269912296 -21.774426591370634 -2.286289125128016 11.000000000000000
8.909793738507499 -21.760248002109225 -2.360560675201094 10.000000000000000
8.868468123345709 -21.754514721240888 -2.428585163370893 8.000000000000000
8.004655206218242 -19.540319944136765 -2.529298204965716 9.000000000000000
6.794464450746958 -16.621806403442733 -2.422842375975399 52.000000000000000
5.400655208374432 -13.164948348364334 -2.107655131417053 5.000000000000000
3.738491957234508 -9.132696459686020 -1.915035683868390 4.000000000000000
3.410859400140070 -8.346746745921298 -1.895455262020343 5.000000000000000
3.136433942144278 -7.689955517664495 -1.881724192601564 5.000000000000000
9.010405780457578 -22.219509475274041 3.638344557067229 47.000000000000000
8.980925032238217 -22.121988428667255 2.321882076161183 42.000000000000000
8.959878228738038 -22.053499572657923 1.449333997694307 48.000000000000000
8.895157031539675 -21.981815481270168 0.940634343025397 9.000000000000000
8.855000825370382 -21.845689200712943 0.793085078284665 8.000000000000000
8.808556908934889 -21.683938711319701 0.722979556945295 13.000000000000000
8.798170160951326 -21.756955594759656 0.651988173004517 10.000000000000000
8.846641282215966 -21.982829342921463 0.579391214601463 7.000000000000000
8.891712941961218 -21.965728796702688 0.507641704758614 14.000000000000000
8.863332176731920 -21.993626552678272 0.433715162794272 10.000000000000000
8.910098377458199 -21.979848881265671 0.361912195754794 9.000000000000000
8.928637651871194 -21.984823617829210 0.292369485576306 10.000000000000000
8.891299211941513 -21.989707043663795 0.219792748068261 9.000000000000000
8.840917309661414 -21.960801078673924 0.147392644083472 12.000000000000000
8.889838500815038 -21.953680479173986 0.074717481513536 11.000000000000000
8.847996271791049 -21.946822888917954 0.002646703707970 14.000000000000000
8.900013653721796 -21.946775116067190 -0.071098027966505 10.000000000000000
8.922491693420632 -21.961806217507895 -0.139720716373934 10.000000000000000
8.880362820904212 -21.954287367794908 -0.212511219023322 10.000000000000000
8.829553145206617 -21.924392835306978 -0.283556728150103 11.000000000000000
8.889532410339967 -21.945667427344436 -0.358213193622858 10.000000000000000
8.845785276064330 -21.933955570146441 -0.429260972839956 11.000000000000000
8.897309788910503 -21.932669166752380 -0.503244504326574 9.000000000000000
8.872443071127300 -21.926559203823881 -0.644767095478669 17.000000000000000
8.829849863987901 -21.917875905412384 -0.716086846678053 12.000000000000000
8.883552834975498 -21.923235285243166 -0.790186577345675 10.000000000000000
8.840814491942472 -21.913941233749771 -0.860870418446933 10.000000000000000
8.890379044004037 -21.907722133435104 -0.934836579968814 10.000000000000000
8.810929974009170 -21.894882283556921 -1.000319126364135 11.000000000000000
8.870442126897709 -21.914152709038692 -1.076955116335831 10.000000000000000
8.810125378619265 -21.859677030487685 -1.144129725134107 15.000000000000000
8.863245436079144 -21.863861173443539 -1.218467589713831 10.000000000000000
8.828797889285127 -21.875723769848733 -1.289456642134839 10.000000000000000
8.863306703902797 -21.831264921579319 -1.361317117321757 13.000000000000000
8.813874222641564 -21.895240340293078 -1.432954585377145 11.000000000000000
8.836804273933422 -21.820664080095689 -1.501663894499132 11.000000000000000
8.807845027074206 -21.846590366861541 -1.574328633593198 9.000000000000000
8.845998074940182 -21.812538960855079 -1.645958997882625 15.000000000000000
8.809731616224346 -21.819592515499242 -1.716007207944055 16.000000000000000
8.858149199720941 -21.810892339444905 -1.790933475811146 13.000000000000000
8.796876555477352 -21.844254024988039 -1.859789457986456 14.000000000000000
8.838023586635888 -21.816591540262664 -1.932447965517471 15.000000000000000
8.808604998576907 -21.841422580911690 -2.004967264550437 12.000000000000000
8.837619030253714 -21.783847461527593 -2.074171527293494 16.000000000000000
8.809587818579097 -21.812095796597394 -2.145831003246426 14.000000000000000
8.844497037706764 -21.768767290747689 -2.217336319238208 11.000000000000000
8.784382889403455 -21.804694292296407 -2.286734847086128 6.000000000000000
8.824992151707134 -21.775868024470665 -2.359126675186322 6.000000000000000
8.806664012667531 -21.829214801499219 -2.434804806345102 7.000000000000000
7.947681996341387 -19.604528617390070 -2.535204744481819 9.000000000000000
6.744695185635664 -16.674401460683814 -2.428139190930391 50.000000000000000
