# This PCD file was generated using the MATLAB® pcwrite function
# from Computer Vision Toolbox®.
# .PCD v.7 - Point Cloud Data file format
VERSION .7
FIELDS x y z intensity
SIZE 8 8 8 8
TYPE F F F F
COUNT 1 1 1 1
WIDTH 629
HEIGHT 1
VIEWPOINT 0 0 0 1 0 0 0
POINTS 629
DATA ascii
17.327336311156795 -11.130518539482694 0.208638847849193 19.000000000000000
17.380973892267956 -11.119968914489993 0.146192322954482 22.000000000000000
17.364830779972994 -11.163184816108085 0.083395396860054 20.000000000000000
17.269400888472752 -11.050882568382889 0.025100998835212 22.000000000000000
17.136131618996775 -11.000787508351788 -0.032663831991584 23.000000000000000
16.755125283359739 -10.780814761755583 -0.081930235511119 25.000000000000000
16.400772245798894 -10.494225223894158 -0.125750846248725 32.000000000000000
16.221781086957218 -10.411038316133320 -0.178276866893492 29.000000000000000
16.146792394282720 -10.326216767639179 -0.231747210042794 31.000000000000000
15.997577672020020 -10.262419156011159 -0.284055011148129 29.000000000000000
15.924300581613311 -10.250438922059837 -0.338090002110947 25.000000000000000
15.852440813479449 -10.158621608453114 -0.389462155537629 21.000000000000000
15.667011482558610 -10.069195855398315 -0.435450999593746 24.000000000000000
14.961805845441324 -9.588846264663948 -0.500193698792360 40.000000000000000
14.912002854362559 -9.590549621265644 -0.552818956360245 29.000000000000000
14.891370654329103 -9.536555813481026 -0.601993110879390 24.000000000000000
14.851125077244799 -9.545075427946715 -0.653933318384626 25.000000000000000
14.810391996781911 -9.477159706966942 -0.700350046480948 23.000000000000000
14.605707606541035 -9.372612896381373 -0.738654854937023 37.000000000000000
14.428950821543143 -9.291586297144846 -0.777603325102323 28.000000000000000
14.403902683305706 -9.235959508202486 -0.825663484857715 27.000000000000000
14.416317560310675 -9.279390350560593 -0.879343028889076 21.000000000000000
14.334969109250375 -9.185324748720653 -0.921144422303306 20.000000000000000
14.225889059190390 -9.144772495032836 -0.961578800444362 20.000000000000000
13.338984916498706 -8.533343009173874 -0.966478771965327 4.000000000000000
12.643797526185757 -8.082561514604180 -1.027629075519195 4.000000000000000
12.556032750364107 -8.052945417801572 -1.062218273153521 3.000000000000000
12.539884689940756 -8.073103058895326 -1.108757867503062 4.000000000000000
12.443563673757026 -7.973719032661763 -1.139137396324499 3.000000000000000
12.560969207173763 -8.086864744832297 -1.203034072339853 27.000000000000000
12.695993333860088 -8.147545875263296 -1.262950988864525 37.000000000000000
11.808219594015055 -7.587050912725406 -1.398326409114083 7.000000000000000
10.636939083479454 -6.818198838483888 -1.443148537759957 7.000000000000000
9.672727222205125 -6.185190653772965 -1.482022012687225 9.000000000000000
9.343983534157557 -5.997621361016870 -1.589060933103036 11.000000000000000
7.744267210520360 -4.969883842051811 -1.610412117702288 6.000000000000000
7.141060584229628 -4.564708275242702 -1.606672180425521 6.000000000000000
6.631993941156354 -4.258524689486664 -1.611600251578219 6.000000000000000
3.482923310636830 -2.240793336159141 -1.640020739263568 0.000000000000000
29.807974947395721 -19.224522269088460 2.110211714998896 18.000000000000000
27.780852562693319 -18.001751580400523 1.411663290865901 12.000000000000000
27.065632289466507 -17.527942099539494 1.003079744786860 7.000000000000000
19.058608059130446 -12.315624812965007 0.585070915077006 18.000000000000000
17.208858577764204 -11.150085262966410 0.453462188807294 27.000000000000000
17.230074180506289 -11.117387716140559 0.392969294255165 20.000000000000000
17.216549879398592 -11.148680902927364 0.331123739954909 16.000000000000000
17.230638687210874 -11.111644553267778 0.270379826773842 16.000000000000000
17.144280240278011 -11.093006076902991 0.210171230312173 22.000000000000000
17.234105664636072 -11.107761879609143 0.147467017309898 31.000000000000000
17.346464628374974 -11.238951958693391 0.081872119473539 20.000000000000000
17.258075462899040 -11.130792100766246 0.023315940646697 24.000000000000000
16.851369996414164 -10.892408337519370 -0.025839976428216 44.000000000000000
16.596535655134325 -10.756954971258665 -0.078638886528520 30.000000000000000
16.500233714966797 -10.645721236909825 -0.132040773848401 30.000000000000000
16.239058362003018 -10.505470658544827 -0.181549155410609 29.000000000000000
16.085213352384145 -10.366024672625331 -0.231569339847846 31.000000000000000
15.952715481438386 -10.313024586411252 -0.284604102324693 29.000000000000000
15.853209028288603 -10.282597761627862 -0.337203426754968 28.000000000000000
15.811265467635405 -10.210991725170578 -0.390141675968153 27.000000000000000
15.103182314266151 -9.763114583243699 -0.513046548584473 39.000000000000000
14.915419823558938 -9.669230681550811 -0.556455822593549 35.000000000000000
14.839211136132793 -9.576489918564423 -0.601576398936151 27.000000000000000
14.798970929465460 -9.584852010197416 -0.653453989887894 24.000000000000000
14.771610161044045 -9.525893597597333 -0.700889383140191 25.000000000000000
14.783844963542894 -9.570509495115877 -0.757769997896257 24.000000000000000
14.385569507665796 -9.296910608224273 -0.827979882225523 26.000000000000000
14.302916074432844 -9.274350119169121 -0.872525935093207 25.000000000000000
14.316847110751992 -9.246023130229579 -0.923571989171774 22.000000000000000
14.152267714585371 -9.166440366623931 -0.958273695659748 24.000000000000000
14.116724139013380 -9.104007601783252 -1.004045372182735 23.000000000000000
13.950595291564209 -9.027777389674938 -1.038841755944967 22.000000000000000
13.832894317497564 -8.908769704364598 -1.073862816422758 24.000000000000000
13.727432622276231 -8.869298751946644 -1.112038477333730 22.000000000000000
12.564619223229810 -8.123458938533055 -1.067827457269430 3.000000000000000
12.465311539238277 -8.053002147164820 -1.146758956484340 4.000000000000000
12.971027434385423 -8.405481719712647 -1.306589320027541 16.000000000000000
11.782500260724568 -7.629864926145080 -1.399499319244104 7.000000000000000
10.610666652818965 -6.854642478588366 -1.443730709064218 7.000000000000000
9.639042075294784 -6.211387929364792 -1.480557328312784 9.000000000000000
9.342920447295690 -6.045650503816068 -1.594622974192243 10.000000000000000
7.721302028809678 -4.993925180077352 -1.609968516062187 6.000000000000000
7.128909355903414 -4.593589417424652 -1.608928933567876 6.000000000000000
6.605367625227772 -4.274021890566550 -1.608967991820685 6.000000000000000
4.800001252449224 -3.091451292131246 -1.631386796286152 23.000000000000000
3.442351133111760 -2.226555485009742 -1.621293890264360 0.000000000000000
29.801470781549479 -19.370204915322944 2.111969208766820 10.000000000000000
27.693524718508527 -18.004856240019283 1.311255439578251 1.000000000000000
24.750996451324692 -16.095310498058044 0.960510415055828 3.000000000000000
21.910770554103667 -14.219194189898719 0.831501538874567 0.000000000000000
19.077350384063536 -12.381055624829781 0.653443692531453 18.000000000000000
19.079203708459737 -12.426706925653409 0.584288554010601 17.000000000000000
17.223377094211337 -11.248191697448693 0.452331257930314 34.000000000000000
17.152622739328304 -11.151840103117415 0.392271782547919 24.000000000000000
17.148906751425198 -11.189864587113970 0.330455245813122 21.000000000000000
17.176278878728695 -11.162010423259987 0.269621089104322 19.000000000000000
17.129497261516182 -11.170340062939292 0.208771276330016 19.000000000000000
17.113890585645727 -11.112809510756879 0.148197963549661 24.000000000000000
17.163411837885604 -11.200866381205859 0.084425967382677 19.000000000000000
17.345153349085429 -11.278879344485029 0.018730603462227 19.000000000000000
16.991780550685835 -11.075648499420026 -0.032542742635677 23.000000000000000
16.553287102733030 -10.811910906180326 -0.079430202242249 35.000000000000000
16.424493143689460 -10.677621101607690 -0.131527960191928 27.000000000000000
16.232867747422727 -10.584221308511895 -0.183841633470000 28.000000000000000
16.148422091255767 -10.492015391041251 -0.237172120581242 32.000000000000000
15.947081379834815 -10.390808932791296 -0.287122237730975 27.000000000000000
15.694399505504048 -10.210837538272166 -0.386499500649992 29.000000000000000
15.621226869136851 -10.197574050798099 -0.438957017725543 28.000000000000000
15.605438461976977 -10.144277398123492 -0.492741522648515 22.000000000000000
15.358174871381738 -10.018447462325220 -0.533721800801136 25.000000000000000
14.911453283883368 -9.702874833317191 -0.610527656991844 29.000000000000000
14.871072455487207 -9.711235170189257 -0.662795020630088 24.000000000000000
14.794921567428512 -9.617767292737868 -0.706554687792616 25.000000000000000
14.751309914750264 -9.623699075526773 -0.758858969253696 25.000000000000000
14.456202233801609 -9.384596048487682 -0.783971795411501 28.000000000000000
14.425820051613860 -9.398986177929048 -0.835795725398494 23.000000000000000
14.121955913988062 -9.183491952758740 -0.908238990074634 27.000000000000000
14.068870807979730 -9.180856568722257 -0.953941570480409 24.000000000000000
14.040042437194693 -9.122968233173459 -1.000236072379213 29.000000000000000
13.962221450244172 -9.107815469383134 -1.044700939301575 24.000000000000000
13.802572550310785 -8.958641005038849 -1.074996981553751 24.000000000000000
13.703782151974044 -8.923377785450898 -1.113951852211103 19.000000000000000
12.566357381460261 -8.189552985249930 -1.072618593029096 3.000000000000000
12.561389326954510 -8.152746565048258 -1.116200790013125 5.000000000000000
12.584070715251862 -8.201391313667571 -1.167400187269682 36.000000000000000
13.066670186099751 -8.507441885598936 -1.277256204846769 19.000000000000000
11.756621668966195 -7.672600180613131 -1.400671240675041 7.000000000000000
10.590698747794201 -6.895597562363058 -1.445502925448692 7.000000000000000
9.614888836340945 -6.244351117835729 -1.481084904346605 9.000000000000000
9.325708456028270 -6.082201357891118 -1.596577841424495 9.000000000000000
7.701396873448338 -5.020199837720417 -1.610390975996004 6.000000000000000
7.107286143227245 -4.615472500911192 -1.608385474975693 5.000000000000000
6.600332553385720 -4.305752973754828 -1.613323049418697 6.000000000000000
4.786736364817308 -3.107531391157607 -1.631648951348307 47.000000000000000
3.440323960255558 -2.244954033002916 -1.626641193731391 0.000000000000000
29.635670457619238 -19.398684384443015 1.472620254961166 16.000000000000000
24.903701009386367 -16.325380442496687 0.963004802587291 5.000000000000000
24.597180596039951 -16.171527564913578 0.870565737064786 31.000000000000000
19.084432589922507 -12.483265570799073 0.652796013021836 19.000000000000000
19.066350854911533 -12.515347178107511 0.583373103635337 19.000000000000000
19.090688827246268 -12.479316072946053 0.516610895098515 21.000000000000000
17.203221581022312 -11.274943778692352 0.390694794173944 23.000000000000000
17.150082078119851 -11.278764571903652 0.329065826945161 21.000000000000000
17.154629536296486 -11.234954129650371 0.268403399890628 18.000000000000000
17.058580152462834 -11.208860921045659 0.208356699583561 22.000000000000000
17.053011413890626 -11.158174249377124 0.147682448729421 22.000000000000000
17.121845283154510 -11.260074527556288 0.083482744471059 22.000000000000000
17.066889243395494 -11.174420755045734 0.024509117486758 28.000000000000000
16.868673487007424 -11.077098235107272 -0.030842641670215 28.000000000000000
16.338883111326602 -10.702278853081806 -0.130622983875041 29.000000000000000
16.262377435002751 -10.688233858500340 -0.187684433032503 30.000000000000000
16.158490930445080 -10.581988676504219 -0.240345643320366 32.000000000000000
15.921446573477175 -10.454939517505062 -0.288655351299568 31.000000000000000
15.847662140381267 -10.360077713323609 -0.339832886601970 28.000000000000000
15.721835412292245 -10.310692007655149 -0.391118345600837 27.000000000000000
15.691181655218852 -10.327064551320536 -0.446401012629765 24.000000000000000
15.606946140452392 -10.225477624072850 -0.496131490931634 18.000000000000000
15.372999180859265 -10.108091178121493 -0.538136395246594 23.000000000000000
14.907814539899300 -9.777157102809449 -0.613812805953615 28.000000000000000
14.772710439548558 -9.718804434951119 -0.658693837517856 26.000000000000000
14.778541732270345 -9.682451229764474 -0.708983941619412 24.000000000000000
14.568398314630434 -9.571272462638213 -0.746966421155009 32.000000000000000
14.509092397313976 -9.496256761190280 -0.792694814005526 29.000000000000000
14.220969076832318 -9.329226776110888 -0.820691178904058 36.000000000000000
14.366024708882161 -9.392256721372291 -0.882823370865837 20.000000000000000
14.103758663848621 -9.243556407550194 -0.910657273893943 24.000000000000000
14.037651453294570 -9.231566628627998 -0.955051280555019 25.000000000000000
13.960136527528784 -9.139223049419844 -0.996068064313431 26.000000000000000
13.840101504027812 -9.093763098359844 -1.035640850257348 28.000000000000000
13.833938488580403 -9.051971258494671 -1.083270209019387 24.000000000000000
12.629332212361826 -8.267774378909754 -1.039282673656091 4.000000000000000
12.558050570229094 -8.248853942041023 -1.076179941141906 4.000000000000000
12.657181758291722 -8.285468513408423 -1.133367897126281 39.000000000000000
12.478430279542515 -8.191580998037047 -1.158108865375185 4.000000000000000
12.710176363157066 -8.322486427555241 -1.233389367446521 47.000000000000000
12.813308374816486 -8.427763649922134 -1.294750121585445 18.000000000000000
11.733808208399982 -7.717564191535365 -1.402368958261725 7.000000000000000
10.570569860180379 -6.936505109083337 -1.447274622026083 7.000000000000000
9.600195206512595 -6.284180477418547 -1.483606326553569 9.000000000000000
9.311526997918412 -6.121028962428003 -1.599254229283311 9.000000000000000
7.681398234721183 -5.046404842176232 -1.610812504555897 6.000000000000000
7.085593030532069 -4.637269094468701 -1.607840805032791 5.000000000000000
6.576667733583016 -4.323424709549291 -1.611686920142668 6.000000000000000
4.779305619021001 -3.128283497006038 -1.634572139349430 51.000000000000000
29.648090258740353 -19.557745056038328 1.473683109664343 20.000000000000000
25.032032576438844 -16.540838685433062 0.965058129546454 17.000000000000000
23.208526392631065 -15.338600448004318 0.849688262211669 4.000000000000000
19.084458603065620 -12.581124077353000 0.652095469978703 17.000000000000000
19.082645836291494 -12.624634650513226 0.582569750397247 17.000000000000000
17.348917620195454 -11.424409244745577 0.450818823103687 29.000000000000000
17.181087645224540 -11.348059768980281 0.389613012264304 23.000000000000000
17.118111649386073 -11.344826302499396 0.328021054097926 21.000000000000000
17.103177242099598 -11.287254519053842 0.267603156500741 20.000000000000000
17.036713173884440 -11.281484536166500 0.207074257452790 26.000000000000000
17.018251545069468 -11.221576908701447 0.146610877133960 26.000000000000000
17.047357307126884 -11.296133189481814 0.083360612558364 28.000000000000000
16.904222002840402 -11.148435911848077 0.027037566198895 30.000000000000000
16.179627015051032 -10.680312076100577 -0.010890113580910 0.000000000000000
16.644207432133562 -10.960623889183550 -0.085026799408599 35.000000000000000
16.377688175642305 -10.813695481680185 -0.134611837704857 32.000000000000000
16.252114765867628 -10.764994127496459 -0.189841509612788 26.000000000000000
16.050398598733931 -10.589423252701275 -0.238029169195216 31.000000000000000
15.911886591072943 -10.530539707890394 -0.291011395585205 29.000000000000000
15.835220960576153 -10.433063065851872 -0.342111654332693 30.000000000000000
15.654010459343494 -10.344171179142341 -0.390285796540744 25.000000000000000
15.646192726998940 -10.376527606727144 -0.446859661632100 22.000000000000000
15.536179341220880 -10.256285163192176 -0.494867288919977 22.000000000000000
15.331961410901739 -10.158745852271283 -0.538758125441303 23.000000000000000
14.851668361084831 -9.814671621595631 -0.613148254931468 26.000000000000000
14.746116265487444 -9.776597300492817 -0.660279506393843 25.000000000000000
14.732539977212356 -9.726436214993738 -0.708981406107328 27.000000000000000
14.545613110962202 -9.630650342374258 -0.748891591897474 36.000000000000000
14.414822035636512 -9.504736404967462 -0.788202980154612 33.000000000000000
14.338800345419511 -9.486642061823977 -0.835847792185621 26.000000000000000
14.220041909383418 -9.363487718015641 -0.872822410175660 27.000000000000000
14.026759992917013 -9.262131109903276 -0.907149015452279 24.000000000000000
13.954265506075195 -9.245241191549404 -0.950708069623030 24.000000000000000
13.818483647007055 -9.111319187894274 -0.985193276416153 29.000000000000000
13.763669732777036 -9.111333535303508 -1.031667544930103 30.000000000000000
13.793351506023352 -9.094959279538662 -1.083277410936369 28.000000000000000
12.607746517365870 -8.318101013572042 -1.041172490601685 3.000000000000000
12.555949553288940 -8.312828793122474 -1.080564041982852 4.000000000000000
12.476825891129254 -8.222796498986341 -1.114610969753656 3.000000000000000
12.976242851003050 -8.578685039076140 -1.275120250992570 20.000000000000000
11.704387657622192 -7.757832077882576 -1.403012080887163 7.000000000000000
10.543879023724239 -6.972716309135087 -1.447853813280417 7.000000000000000
9.578968065621655 -6.319328951164128 -1.484797373929370 9.000000000000000
9.281342648754332 -6.148183646843263 -1.598320226270895 8.000000000000000
7.661306356631577 -5.072539866963030 -1.611233096472366 5.000000000000000
7.070032831029446 -4.663673896154926 -1.609162302873608 5.000000000000000
6.556028511957599 -4.343348559321241 -1.611048085250311 6.000000000000000
4.768846147956666 -3.146663959381293 -1.636164354473159 61.000000000000000
29.320396649027067 -19.483775587134154 1.463681984612473 20.000000000000000
25.784521024339334 -17.228378508507461 1.072509963916012 1.000000000000000
25.796752809874612 -17.199573693823790 0.978708011730383 12.000000000000000
19.084029140574827 -12.679138144672063 0.651391943161789 19.000000000000000
19.013279153538399 -12.674450972137803 0.581438207675950 21.000000000000000
17.424359514356354 -11.567123019257682 0.449459008365300 25.000000000000000
17.158648476282195 -11.421166586469369 0.388531002322625 27.000000000000000
17.141387805976596 -11.450089735119480 0.326383476448673 24.000000000000000
17.080991083636260 -11.360075214282750 0.266386557457067 22.000000000000000
17.017808837163798 -11.356408195672005 0.205733198982452 22.000000000000000
17.051941389746137 -11.333209526561530 0.144066392319802 24.000000000000000
17.034824372554016 -11.375741841190603 0.081684197203338 26.000000000000000
17.022978743608679 -11.319675679649579 0.021511070233342 26.000000000000000
16.969071827556451 -11.322632042549017 -0.038605576385199 26.000000000000000
16.796394264726803 -11.153853416740295 -0.092867225801687 25.000000000000000
16.425705165773799 -10.932440739375991 -0.138994921923353 30.000000000000000
16.179534979983814 -10.797914646753082 -0.189318402989839 28.000000000000000
16.020738276766568 -10.651677796459019 -0.239370018926631 28.000000000000000
15.885695938751061 -10.594639981319098 -0.292544664889281 26.000000000000000
15.806144239727990 -10.494558368989724 -0.343509374375526 28.000000000000000
15.683914775998607 -10.446651441620569 -0.395098624611787 28.000000000000000
15.550139123634724 -10.346752574499874 -0.499105787903885 22.000000000000000
15.300508665430668 -10.216201305540048 -0.540048318923609 25.000000000000000
14.827960965687131 -9.875076841697906 -0.614951416029508 26.000000000000000
14.719294271565639 -9.834331028304986 -0.661864561210922 25.000000000000000
14.689659900536855 -9.772538671180751 -0.709246545797083 26.000000000000000
14.646036284839649 -9.778019127083722 -0.761552948099811 29.000000000000000
14.401881698798167 -9.570562139004233 -0.791053591818507 31.000000000000000
14.202617085431859 -9.464100632754251 -0.827147492928698 32.000000000000000
14.145905858045181 -9.384684839041162 -0.869792288595712 25.000000000000000
14.030917214669545 -9.338187841946166 -0.911870541452451 23.000000000000000
13.909839653125019 -9.286287138999452 -0.950448849817347 25.000000000000000
13.829692374956807 -9.191233550337547 -0.990887602536624 25.000000000000000
13.745534350546022 -9.170288800202471 -1.034245926294098 30.000000000000000
13.775310852224024 -9.153985363557583 -1.085915463141441 25.000000000000000
12.605350162932025 -8.382322521566337 -1.045460078835923 4.000000000000000
12.556777795171035 -8.379230702763536 -1.085360847547566 3.000000000000000
12.513573121726456 -8.314358170227489 -1.124174577401431 4.000000000000000
12.445076972077949 -8.298158581029970 -1.163388190290833 3.000000000000000
12.899685505613006 -8.558903887180133 -1.219582931198051 40.000000000000000
12.694571464545096 -8.476190922051863 -1.288374974407752 19.000000000000000
11.681240619077460 -7.802658109998942 -1.404708130657787 7.000000000000000
10.523444624124567 -7.013497957463654 -1.449624128896229 7.000000000000000
9.557608355520939 -6.354420869992691 -1.485987599512393 9.000000000000000
9.238438253806294 -6.165836067258580 -1.594495465083712 8.000000000000000
7.638008638962821 -5.096247253656323 -1.610784892016134 6.000000000000000
7.045091476328513 -4.682962455546580 -1.607681671987751 6.000000000000000
6.541454538052816 -4.367928045352697 -1.612406009417441 6.000000000000000
4.752453611672044 -3.160265347783628 -1.635093941534788 57.000000000000000
29.338695572677647 -19.646864416167166 1.464966238795657 26.000000000000000
22.904805642856168 -15.312032344563612 0.925778647019437 4.000000000000000
22.771988922118403 -15.271746127036817 0.842391588639140 14.000000000000000
19.092950907442155 -12.784224197846431 0.650758286022083 18.000000000000000
18.898068833703633 -12.691614751410299 0.580139680851527 25.000000000000000
17.388055095590875 -11.631867188776173 0.448477705115107 25.000000000000000
17.256528335304814 -11.580014903261775 0.386588776119897 28.000000000000000
17.104161720062237 -11.465299772779375 0.264514870221268 22.000000000000000
17.031165980643227 -11.454542259258137 0.203805950868839 23.000000000000000
17.081791192444495 -11.442910816494475 0.141585973517098 21.000000000000000
17.044724868818658 -11.471670965860943 0.079430546551849 27.000000000000000
17.052724776529921 -11.429351587488568 0.018507400699279 21.000000000000000
16.901057678123404 -11.362595544895191 -0.038690415772237 29.000000000000000
16.520256044596973 -11.045196242856786 -0.085319418310080 43.000000000000000
16.290677539924975 -10.921851549531159 -0.136143601048488 25.000000000000000
16.129695929413892 -10.846721989701642 -0.189779075438393 29.000000000000000
15.912738902118770 -10.658152689111676 -0.237039046861810 33.000000000000000
15.852746541808369 -10.654040653871599 -0.293747536764778 27.000000000000000
15.773572024992148 -10.553667491458999 -0.344729755368149 29.000000000000000
15.648267581961772 -10.503019761090501 -0.396146677968724 31.000000000000000
15.575001975133974 -10.407285819747065 -0.445715411985841 29.000000000000000
15.459596555883572 -10.363214718367328 -0.496563363814877 29.000000000000000
15.340198146516608 -10.324823026121020 -0.546259059254667 20.000000000000000
15.039031942536678 -10.066722926137544 -0.579277238327822 29.000000000000000
14.649877785769352 -9.820785673786069 -0.709779953820333 28.000000000000000
14.453950399683384 -9.716707483418297 -0.748783250788914 25.000000000000000
14.388652667831161 -9.636417187581179 -0.793905096664796 30.000000000000000
14.099129071464509 -9.464038373234036 -0.821496755833792 33.000000000000000
14.065310596980170 -9.400840631200703 -0.866120903648817 20.000000000000000
13.966741730839555 -9.365522140658930 -0.909672700948887 23.000000000000000
13.939641009520432 -9.380768568448337 -0.958031887707474 22.000000000000000
13.918183046237223 -9.327117237916909 -1.005057256147217 24.000000000000000
13.778801260035678 -9.266580176136397 -1.042656572168352 25.000000000000000
13.757021630049223 -9.213004586432904 -1.088553709624772 23.000000000000000
12.641338590537904 -8.474638591756429 -1.054547908954772 6.000000000000000
12.669973074330249 -8.527573773585424 -1.104551001638587 9.000000000000000
12.640081680508317 -8.471535625567428 -1.145592068085701 13.000000000000000
12.837163131401272 -8.614123851814067 -1.266276991719939 24.000000000000000
10.499665580090607 -7.051890541452868 -1.450797516633972 7.000000000000000
9.523445754557546 -6.380048269701392 -1.484514956656898 9.000000000000000
9.204975587645826 -6.190336523892931 -1.592834719508566 8.000000000000000
7.617739352681690 -5.122232726884788 -1.611203414079853 6.000000000000000
7.023182407159485 -4.704509075754110 -1.607133516775793 5.000000000000000
6.520673070569698 -4.387707298152378 -1.611765178639485 6.000000000000000
4.736020283236797 -3.173799218503350 -1.634022565851789 57.000000000000000
27.887279187953137 -18.785038418892668 1.418308747224626 2.000000000000000
19.563750772853787 -13.226822390253156 0.794661491836620 1.000000000000000
25.756443516394690 -17.437843193116869 0.977418576143220 4.000000000000000
19.075277508556653 -12.871005817555456 0.649928060684190 19.000000000000000
18.867673963105339 -12.768474814694699 0.579164983836268 21.000000000000000
17.351506771011064 -11.696506974150044 0.447497673481831 23.000000000000000
17.301470050294306 -11.702427790550004 0.385007802384662 25.000000000000000
17.235782231114435 -11.606747042015520 0.323968455971208 23.000000000000000
17.227656453797376 -11.642957043677805 0.261182319146968 24.000000000000000
17.176172362662427 -11.599446911324382 0.137688504135628 23.000000000000000
16.314509305898373 -10.990067854072782 0.037728994792918 2.000000000000000
16.673806525770690 -11.287964214633650 -0.033577325175891 44.000000000000000
16.729740178771088 -11.281186417272542 -0.095295234199187 22.000000000000000
16.204659173285588 -10.945395659289643 -0.135222648946971 47.000000000000000
15.996391932677154 -10.801630643081605 -0.243734041500985 29.000000000000000
15.845509332723557 -10.732043394947375 -0.296270860509795 31.000000000000000
15.747268836663665 -10.617344775487872 -0.346302618726095 28.000000000000000
15.592956200204450 -10.545270290453825 -0.396061049527017 27.000000000000000
15.494041398425457 -10.430694401961340 -0.443965168814310 29.000000000000000
15.463189356102628 -10.446781822639462 -0.500167430587014 27.000000000000000
15.046770977407100 -10.151195524484681 -0.583405153321548 28.000000000000000
14.941610756941106 -10.112681368889312 -0.630932658194599 25.000000000000000
14.457825562197467 -9.759138717958370 -0.697584132145421 31.000000000000000
14.437019766782569 -9.780496925026210 -0.751270997251941 24.000000000000000
14.294326484518725 -9.643863825003788 -0.789397844450575 34.000000000000000
14.179826431273749 -9.596860588254867 -0.833302306647664 30.000000000000000
13.984771843499818 -9.416556763985911 -0.862442873701884 22.000000000000000
13.947740190247744 -9.425263543715209 -0.912087267760903 23.000000000000000
13.934862050633242 -9.412364958391317 -1.011468978325514 24.000000000000000
12.652055669413924 -8.551220033625361 -0.968767087276005 1.000000000000000
13.516028530837737 -9.110725023495576 -1.065212285078779 35.000000000000000
12.728278727718747 -8.604846920527999 -1.070042449746225 41.000000000000000
12.754368963407618 -8.588956246573327 -1.210135860200391 45.000000000000000
12.685802837814974 -8.571518179732097 -1.250459917436275 27.000000000000000
11.648319601783207 -7.840393571978865 -1.404821578145006 7.000000000000000
10.478918399749906 -7.092568457632398 -1.452566512507152 7.000000000000000
9.511332227546216 -6.422051821635851 -1.487699961427037 9.000000000000000
9.180881127065568 -6.221784030755234 -1.593339558180203 8.000000000000000
7.594281348346382 -5.145766036166478 -1.610752794081662 5.000000000000000
7.001204765450030 -4.725968325551875 -1.606584135110091 6.000000000000000
4.719546433526123 -3.187265460624598 -1.632950225377449 58.000000000000000
29.415453294237729 -20.004058109984797 1.468903953661970 13.000000000000000
22.629576002684992 -15.354622898739366 0.920293749066811 4.000000000000000
19.083728429366584 -13.030861799596114 0.717191997832675 16.000000000000000
18.849031220555094 -12.808869757044260 0.647567352614746 28.000000000000000
18.690725642953669 -12.740336567588422 0.577654964959834 23.000000000000000
17.366669382725014 -11.798409204997878 0.446329790342973 18.000000000000000
17.293860407931689 -11.787858724878181 0.383796786123644 25.000000000000000
17.309793712069350 -11.750209372289376 0.321751999527552 20.000000000000000
17.320905363287327 -11.800581356082100 0.258257679055320 20.000000000000000
17.226041395880994 -11.683449148145790 0.198585007523025 21.000000000000000
17.162524787645399 -11.679716552812613 0.136112174567504 25.000000000000000
17.086628304956847 -11.591156699214190 0.076348480302516 25.000000000000000
16.870502383618525 -11.476675676655617 0.019466259182861 36.000000000000000
16.781003126510189 -11.453253358462515 -0.039376422174234 24.000000000000000
16.658733811735779 -11.317851882773766 -0.095150989259782 29.000000000000000
16.361749258810072 -11.144039881654855 -0.144021005147511 28.000000000000000
16.293918907397245 -11.049343869205211 -0.199575295443636 22.000000000000000
16.105132373952760 -10.964585479925326 -0.251667344117141 20.000000000000000
15.812043903877568 -10.791348201683427 -0.297472913308701 27.000000000000000
15.717470396461596 -10.678634028010419 -0.347698114703083 29.000000000000000
15.576353480890848 -10.615408701912518 -0.398238490358640 29.000000000000000
15.532954107743905 -10.540195302974594 -0.449623476908257 27.000000000000000
15.391967622391295 -10.476632020633172 -0.498889481843964 23.000000000000000
15.311364339985532 -10.384692735771857 -0.547774975227803 25.000000000000000
15.086415109018096 -10.259306200080964 -0.589896330894996 26.000000000000000
14.642342499860652 -9.933214786554458 -0.663216921129643 34.000000000000000
14.505265427927206 -9.869912977825914 -0.705421112967739 28.000000000000000
14.403694365941647 -9.832542424597591 -0.752343830059203 25.000000000000000
14.148534669659437 -9.613192930408024 -0.780169495139458 49.000000000000000
14.147057559944047 -9.648011875002485 -0.834388399699048 31.000000000000000
14.013917930183796 -9.511590784538296 -0.869570945724462 24.000000000000000
13.967129600125455 -9.513198601153650 -0.918461641866827 26.000000000000000
13.959273558395502 -9.468551383509098 -0.964596625259403 23.000000000000000
13.992972519597199 -9.528353510156442 -1.022478331962987 22.000000000000000
13.872737135261767 -9.407777336338004 -1.058002132595300 23.000000000000000
12.760897258431008 -8.663322189396130 -1.029143253594226 26.000000000000000
12.567494757228157 -8.554322651376937 -1.054731224819428 3.000000000000000
12.547086886024958 -8.537104110060760 -1.143161019721589 9.000000000000000
12.811652491608655 -8.698618954802754 -1.223010246194852 32.000000000000000
12.701412670891918 -8.650430151530683 -1.257858031091474 24.000000000000000
12.646305705690377 -8.575045820175259 -1.292055910230468 21.000000000000000
11.624848023507456 -7.885068029718301 -1.406515746404039 7.000000000000000
10.448507923994969 -7.126090158809117 -1.452544865301035 7.000000000000000
9.480130709569206 -6.449823331730483 -1.486889997659746 9.000000000000000
9.150404801717302 -6.248393986098398 -1.592397750269559 8.000000000000000
7.580011407309231 -5.176375914524931 -1.612905983761161 6.000000000000000
6.979158894711506 -4.747339995312077 -1.606033523343444 6.000000000000000
6.499829240805347 -4.407403229823532 -1.611123174465459 6.000000000000000
4.705936349989370 -3.203066346291969 -1.633208572520044 56.000000000000000
29.153942686285365 -19.971930490589067 1.461102304239188 14.000000000000000
22.602802500050341 -15.453816881589461 0.919579656364646 8.000000000000000
18.704571875730508 -12.803790497064082 0.645821513244075 25.000000000000000
18.627659957913675 -12.793152115950484 0.576571850408490 26.000000000000000
17.391044184312538 -11.907613147286877 0.445121522153588 2.000000000000000
17.302038838620007 -11.885144894772194 0.382464931686483 24.000000000000000
17.308476242886336 -11.840407675406501 0.320340189470678 20.000000000000000
17.287011333111593 -11.867377362426465 0.257165185717572 22.000000000000000
17.250941983846129 -11.792063656837723 0.196403815414344 20.000000000000000
17.216528388971625 -11.809323294874472 0.133045482145882 24.000000000000000
17.131138742051270 -11.713432589788750 0.073176474893367 29.000000000000000
16.708272244044519 -11.447900513908328 0.022037018308906 33.000000000000000
16.690101852607359 -11.475805512485858 -0.038703295971051 30.000000000000000
16.794802329104208 -11.504412727807956 -0.102563424292828 24.000000000000000
16.514409566866089 -11.341568698870930 -0.152709373807227 17.000000000000000
16.269145429860021 -11.117241008520429 -0.201175229120925 21.000000000000000
15.990089699667957 -10.965929684208403 -0.249023774177960 27.000000000000000
15.713837606102725 -10.803369735799130 -0.295362733156679 29.000000000000000
15.655128526172584 -10.716328902898550 -0.347321350073982 28.000000000000000
15.530407905960697 -10.664364462898675 -0.398714969505123 30.000000000000000
15.471124557123430 -10.577266153443137 -0.449070385137647 25.000000000000000
13.907422953656727 -9.516178327459500 -0.457070712715704 4.000000000000000
15.198385169534260 -10.383330087881950 -0.543464471283902 26.000000000000000
13.909689080916813 -9.514323756263902 -0.558953923912226 11.000000000000000
14.092016847998465 -9.683914032148833 -0.626374993530749 42.000000000000000
14.394325306085413 -9.865620110834081 -0.699979506948949 22.000000000000000
13.974614980974470 -9.593999034106801 -0.718575761462452 38.000000000000000
14.334367042504084 -9.824744365747538 -0.801285466962947 29.000000000000000
14.162278048229805 -9.734523961182045 -0.840074684848125 42.000000000000000
14.103670515933063 -9.651727878222566 -0.882750347206384 22.000000000000000
14.018189045797978 -9.625001854904987 -0.928141950216010 22.000000000000000
13.988105955545645 -9.563654517989898 -0.972190086504000 24.000000000000000
13.979773500346367 -9.593002290197550 -1.025718667582612 22.000000000000000
13.606437307901796 -9.358697437030065 -1.037260213013134 37.000000000000000
12.625675437150838 -8.631528466704239 -1.017415166656268 3.000000000000000
12.563970246635753 -8.618806279538884 -1.059024065416647 4.000000000000000
12.506116944718471 -8.541355977471127 -1.093179188959470 2.000000000000000
12.466884626917775 -8.544739918280360 -1.137492401780733 3.000000000000000
12.733987734901755 -8.709570045976184 -1.217626622468178 30.000000000000000
12.665516728277206 -8.691698358788647 -1.258109520777962 24.000000000000000
12.636271099390189 -8.635005781222365 -1.295956831107839 21.000000000000000
11.594835689422688 -7.924954478446613 -1.407153865595348 7.000000000000000
10.427465006219938 -7.166633245551616 -1.454312194238769 7.000000000000000
9.467703473253065 -6.491763227332268 -1.490074421537797 9.000000000000000
8.276039274548809 -5.672454106546329 -1.617534706629795 6.000000000000000
6.960104676945611 -4.771025094330623 -1.606416223133199 6.000000000000000
6.469806521138349 -4.419812008884963 -1.607481582196468 7.000000000000000
4.689373782591913 -3.216407115727687 -1.632134458002813 61.000000000000000
27.568339076943289 -18.992848154820010 1.409996599427197 1.000000000000000
22.403553508611218 -15.429193661503742 0.915739723366262 8.000000000000000
19.084422951514600 -13.131947441912185 0.716672104414958 16.000000000000000
18.676896449967057 -12.882465430868152 0.644935924375878 26.000000000000000
18.593550619389635 -12.866882772967632 0.575596608367809 24.000000000000000
18.537702504293240 -12.773071230410277 0.509354673431726 26.000000000000000
18.161173077172865 -12.561922685369861 0.441095004226827 24.000000000000000
17.258250808669736 -11.895406906483174 0.319460317488154 24.000000000000000
17.281917619217875 -11.955340062011997 0.255646302778709 19.000000000000000
17.297924640071464 -11.917477809113208 0.193803452893866 22.000000000000000
16.962961160954059 -11.715435319158741 0.136723636266553 35.000000000000000
17.120077480051794 -11.796096466612196 0.071404665789005 26.000000000000000
16.798161222685515 -11.602340078516715 0.017233448922264 32.000000000000000
16.619857455343315 -11.465613541286697 -0.098633675439557 25.000000000000000
16.359546071321905 -11.315794477963907 -0.149063375840894 26.000000000000000
16.173049426638471 -11.133269407179101 -0.199654367896829 26.000000000000000
15.965425280959709 -11.032874050116019 -0.250673072476103 28.000000000000000
15.692957401411036 -10.871742170294445 -0.297221839151476 26.000000000000000
15.628153845681311 -10.779720620413482 -0.348890910844839 28.000000000000000
15.506834246811415 -10.729712253845245 -0.400513574632635 30.000000000000000
15.370548614291282 -10.585712170331711 -0.446103814111074 28.000000000000000
13.897400075458139 -9.583027078087603 -0.459632029895879 15.000000000000000
13.906292436761417 -9.624929530836518 -0.513850401330024 15.000000000000000
13.925401318691653 -9.600131019604373 -0.563686831716995 9.000000000000000
13.917855199688152 -9.630236225456965 -0.615970503186161 17.000000000000000
14.042714203885460 -9.683016185556891 -0.674178805321835 47.000000000000000
14.015701371269479 -9.699023152935307 -0.726142969588424 17.000000000000000
14.313597844681833 -9.885938614488060 -0.803549614406563 29.000000000000000
13.923979423090756 -9.633597952419766 -0.821516339364769 41.000000000000000
13.971269723406094 -9.629212246553058 -0.873973834070589 32.000000000000000
13.895634009343363 -9.609185325854925 -0.919992241088174 33.000000000000000
13.952281751603058 -9.611782997712867 -0.972956588131359 24.000000000000000
13.758049059292606 -9.503703508953105 -1.005968977906655 29.000000000000000
12.640737333133437 -8.745607019102938 -0.981033848053070 3.000000000000000
12.634606769814242 -8.705780974894822 -1.023160076650697 4.000000000000000
12.671819018217858 -8.766636658747544 -1.077338848235701 34.000000000000000
12.489836758750325 -8.596173522583957 -1.095922858178729 3.000000000000000
12.610109093416970 -8.718198414646764 -1.161486082461622 32.000000000000000
12.729771515828409 -8.774687217116044 -1.222243618791558 31.000000000000000
12.705939872091221 -8.789891655025400 -1.269089027007788 21.000000000000000
12.610019091965771 -8.683159014479120 -1.297567376768797 19.000000000000000
11.567857329812290 -7.967111020540217 -1.408318435607458 7.000000000000000
10.399960102262542 -7.202343413799297 -1.454884854992397 7.000000000000000
9.436288484307742 -6.519340331051787 -1.489261755206363 10.000000000000000
9.122977530873376 -6.277265298231647 -1.592177032475643 8.000000000000000
7.547139283090741 -5.192553927168189 -1.609847649976693 6.000000000000000
6.940966013960809 -4.794643527348898 -1.606798024795611 6.000000000000000
6.445833715568346 -4.436890433543984 -1.605837098278655 7.000000000000000
4.672771475209188 -3.229679895726044 -1.631059372156008 66.000000000000000
28.288530698581170 -19.655540124654614 1.434306127463141 17.000000000000000
22.301893357234885 -15.473808084772656 0.913681852531263 12.000000000000000
19.078176031449715 -13.228490803050599 0.716078926954955 16.000000000000000
18.807091868427189 -13.076826600553133 0.645195167030167 37.000000000000000
18.607527699778810 -12.976028339217324 0.574792640615314 40.000000000000000
18.200028751593827 -12.624739653323068 0.508354535959129 36.000000000000000
17.998843607763284 -12.539300300202466 0.440538743028148 22.000000000000000
17.462547862328982 -12.137220085397443 0.315753656512121 34.000000000000000
17.331165768991195 -12.083740481111420 0.253314792516769 18.000000000000000
17.244248459798879 -11.970056351215970 0.193032704979821 20.000000000000000
17.158109146713926 -11.949274557149934 0.130520754067362 20.000000000000000
16.841185939874901 -11.682255233962275 0.076519850543181 32.000000000000000
16.784166296115647 -11.681625248913328 0.015454548366668 36.000000000000000
16.569522795789624 -11.564609130145051 -0.039362362994256 29.000000000000000
16.577403561266532 -11.522921595965649 -0.099546212299406 29.000000000000000
16.394824363242574 -11.429182830098121 -0.153085827025705 23.000000000000000
16.205874857061925 -11.243472594879425 -0.203806594834666 20.000000000000000
15.930845114273632 -11.092654988030667 -0.251860677564680 24.000000000000000
9.970510116483046 -6.947787081095276 -0.197130423577910 3.000000000000000
15.597709353262346 -10.840694387622555 -0.350282455226502 27.000000000000000
9.947001971812185 -6.930130803388544 -0.269274896746863 1.000000000000000
15.353676057499328 -10.655267075657575 -0.448353126146809 27.000000000000000
13.903087566713905 -9.661860875252589 -0.463317519982792 13.000000000000000
13.895805608412283 -9.691895508588932 -0.516509482552508 20.000000000000000
14.033565196028063 -9.755282461467676 -0.575622333144948 18.000000000000000
14.000079173676820 -9.726575358038218 -0.674405679588422 60.000000000000000
13.902256141239816 -9.656424059120681 -0.769812233366241 40.000000000000000
14.008769828344420 -9.732008899586027 -0.882068390412371 46.000000000000000
14.060939236808260 -9.807144253359061 -0.941577076404709 25.000000000000000
13.887491835669119 -9.638400906776452 -0.970645250622144 29.000000000000000
13.725646375396098 -9.553408970988290 -1.007076159800435 28.000000000000000
13.746983269976052 -9.536314052884984 -1.058096752871186 26.000000000000000
12.713276084840450 -8.832704327937627 -1.037460574366089 38.000000000000000
12.639017377776650 -8.774890095006304 -1.120084793698912 29.000000000000000
12.497698202685221 -8.701862447927926 -1.151575939278574 3.000000000000000
12.909792337711185 -8.978206945733636 -1.252107826132981 23.000000000000000
12.685456188022929 -8.843101198864638 -1.271577206193477 23.000000000000000
12.618574907308323 -8.757433469955503 -1.304219971333217 22.000000000000000
11.534388521344034 -8.004411809211611 -1.408425882966935 7.000000000000000
10.381756525572381 -7.245164354935147 -1.457247859314770 7.000000000000000
9.426673745724768 -6.563619388797862 -1.493111951876733 9.000000000000000
9.101692992965832 -6.310824453145615 -1.593401049205958 9.000000000000000
7.529597929116198 -5.220630637806272 -1.611130540922202 6.000000000000000
6.927828222484403 -4.823033323884262 -1.609048716850077 6.000000000000000
6.409728717066868 -4.444181179537619 -1.600191846627425 10.000000000000000
4.656129701214302 -3.242884576337127 -1.629983312940359 56.000000000000000
28.223956309042844 -19.758233790808070 1.432961930652899 19.000000000000000
22.297088598573026 -15.588674913430669 0.913389812594493 12.000000000000000
19.084376859009389 -13.334623985956028 0.715622858268510 16.000000000000000
19.106824022337658 -13.398011744997055 0.646665729792991 21.000000000000000
18.212411461154250 -12.783531023113618 0.572563072143977 7.000000000000000
18.085929350425697 -12.637779277589935 0.507364650628766 23.000000000000000
17.933317744769948 -12.587133014611297 0.439621483380865 25.000000000000000
17.456334991332159 -12.226010348448598 0.314361321561619 22.000000000000000
17.280141680659792 -12.138763195507998 0.252458333318028 23.000000000000000
17.241886211341360 -12.060433168292825 0.191313816422190 20.000000000000000
16.927621088833121 -11.870377198767093 0.133724264268615 34.000000000000000
16.923274753112153 -11.833141936110158 0.072347758156882 29.000000000000000
16.705607006309041 -11.713275686340822 0.015576251606551 30.000000000000000
16.448033842810982 -11.515781828941163 -0.097252226204773 29.000000000000000
16.323640850966111 -11.464233603859427 -0.152811796422773 20.000000000000000
9.924162975441103 -6.970779893650693 -0.122101227840365 2.000000000000000
15.956925306125944 -11.197726176862584 -0.255973733042111 22.000000000000000
9.921673302218847 -6.964815194508631 -0.196101361565832 24.000000000000000
9.951784701186487 -6.960750930675750 -0.234657653367502 3.000000000000000
9.904580289806553 -6.951975207896818 -0.268575959612729 2.000000000000000
9.909043864986545 -6.928520079972968 -0.304428695830160 1.000000000000000
13.902000916015448 -9.736066705675118 -0.466556362378317 5.000000000000000
13.907347237498707 -9.775723433184018 -0.520827933540572 4.000000000000000
9.965630283207624 -6.995279381166231 -0.421709420265428 13.000000000000000
9.951013543938323 -6.957036147552818 -0.456245404170258 3.000000000000000
9.931756000072353 -6.969479450067990 -0.492039086951182 2.000000000000000
9.938900097699598 -6.948188367744883 -0.528322304036679 1.000000000000000
14.309579616115629 -10.037003852039049 -0.811621297493278 30.000000000000000
14.379925754809642 -10.049047475200402 -0.869579509248705 23.000000000000000
9.974899594329891 -6.999231680085654 -0.644879764003773 0.000000000000000
13.816300342006809 -9.659921879943184 -0.967645066853235 30.000000000000000
12.683512226405671 -8.881719320322039 -0.945551570369096 1.000000000000000
13.596444168234674 -9.497574713303962 -1.045700059890459 30.000000000000000
12.650719209946455 -8.890059782562053 -0.991485392194482 4.000000000000000
12.564278404918531 -8.822384346797554 -1.073516217396433 5.000000000000000
12.501064967971187 -8.739319778667369 -1.107179762924162 3.000000000000000
12.712446054379868 -8.931789894510322 -1.185347662897333 46.000000000000000
12.777546166290069 -8.948302487268174 -1.239320500385160 31.000000000000000
12.648906566839676 -8.884285792990877 -1.271828067804108 24.000000000000000
12.617241670317183 -8.824705258920908 -1.309499746155482 18.000000000000000
11.507112636618116 -8.046378936333328 -1.409587971098906 7.000000000000000
9.410625249158461 -6.603087041263203 -1.495629567730611 9.000000000000000
9.070951100325514 -6.337092000957263 -1.592454431052956 8.000000000000000
7.505823242465437 -5.243812634728890 -1.610675037187855 6.000000000000000
6.902436176095107 -4.841672503409322 -1.607558940287768 6.000000000000000
6.382688539079183 -4.458581354073011 -1.597543657453316 12.000000000000000
4.639448733792198 -3.256021050034347 -1.628906278351760 31.000000000000000
27.470965373939695 -19.358732097686794 1.409059278313843 16.000000000000000
22.220872321018700 -15.651561858621470 0.911809287108444 15.000000000000000
19.093279851826043 -13.443355043791192 0.715197821595821 17.000000000000000
18.765360128019079 -13.247058628516911 0.643522113502917 27.000000000000000
18.216736777508956 -12.884607944148799 0.571739528568454 35.000000000000000
18.029802623822327 -12.693048846679995 0.506374854405665 25.000000000000000
17.928585455762054 -12.680118974687783 0.438467002565068 24.000000000000000
17.680132935842177 -12.443012127872365 0.375747963320533 21.000000000000000
17.331466825081627 -12.270201033062362 0.250067851926934 18.000000000000000
17.168504333767601 -12.098423095690274 0.190904263388840 28.000000000000000
16.810077981060999 -11.873745980424877 0.134443682825556 33.000000000000000
16.780106655322992 -11.817391182171200 0.073998369192683 35.000000000000000
16.620623516228235 -11.739744679949965 0.015894512787671 33.000000000000000
16.545947381143872 -11.636070953213643 -0.040914984923873 29.000000000000000
16.363759421855310 -11.541385217098526 -0.096610769698129 29.000000000000000
9.900086046063667 -6.979523683431903 -0.085484492106999 1.000000000000000
9.884825680169618 -6.994938376680192 -0.121836753339839 9.000000000000000
15.889770012728713 -11.233522715250963 -0.255620134424018 23.000000000000000
9.860228657335337 -6.971784656293591 -0.194165951744057 23.000000000000000
9.880852978524933 -6.960561063029076 -0.231879071346951 5.000000000000000
9.852666691361735 -6.966267201715120 -0.267126171256115 5.000000000000000
9.882448595117843 -6.962425152424641 -0.304972626498900 2.000000000000000
9.869875538984891 -6.979840321196033 -0.341020462130501 2.000000000000000
9.902761172485183 -6.978507048805361 -0.379959912959214 5.000000000000000
