# This PCD file was generated using the MATLAB® pcwrite function
# from Computer Vision Toolbox®.
# .PCD v.7 - Point Cloud Data file format
VERSION .7
FIELDS x y z intensity
SIZE 8 8 8 8
TYPE F F F F
COUNT 1 1 1 1
WIDTH 642
HEIGHT 1
VIEWPOINT 0 0 0 1 0 0 0
POINTS 642
DATA ascii
7.656202210425009 7.532319460170264 -0.330326814610633 0.000000000000000
17.748156762935306 17.413955601218021 -0.806255219945881 10.000000000000000
7.441658637777193 7.315853063421130 -0.393489688688855 0.000000000000000
7.391170488267576 7.242759570336510 -0.416712688200592 0.000000000000000
7.302394520637178 7.181196730305061 -0.435615755544505 1.000000000000000
7.015336739758378 6.914652138570062 -0.567223225530801 15.000000000000000
7.008085233383498 6.910412846596351 -0.734564247513803 22.000000000000000
6.963316577868055 6.826374908479167 -0.891421997494671 10.000000000000000
6.952605313671388 6.818579375783060 -1.028605381976205 20.000000000000000
6.961817448752993 6.830016782554338 -1.225826870959846 0.000000000000000
7.490254276026530 7.373254444585939 -1.544274521178561 6.000000000000000
6.441241882354188 6.351665539560990 -1.557928773688995 6.000000000000000
4.731072749650473 4.646461549558293 -1.580424587128881 91.000000000000000
3.530365047270494 3.478053511650067 -1.590913395007326 0.000000000000000
11.167239991575334 10.878965872377805 3.667094880222719 21.000000000000000
11.595780146706858 11.296131533402914 2.939540231375217 10.000000000000000
10.587758353825544 10.354981753067491 1.955995415364009 0.000000000000000
27.036416448211266 26.487033803161459 2.264890771746524 29.000000000000000
27.018568772843619 26.458839888645684 1.818609115172003 32.000000000000000
27.081532556084387 26.480582359466297 1.268478507586147 12.000000000000000
27.020334888159990 26.470417058330526 1.154587353703698 13.000000000000000
27.075785754221776 26.443892857934287 1.044449861117465 11.000000000000000
27.168485505655983 26.452963819879457 0.934102225294418 13.000000000000000
27.089697814219637 26.477534263841605 0.823771465047274 12.000000000000000
27.187723300738082 26.491689736187574 0.713553624821693 15.000000000000000
27.093541036428416 26.502082221614835 0.601936527947412 17.000000000000000
27.030263759262294 26.409865906684765 0.380270186960667 22.000000000000000
27.109959052070113 26.406271315557206 0.269508997591286 17.000000000000000
26.917653578412253 26.321313386502268 0.160170167033873 21.000000000000000
26.956417311562177 26.278833887108128 0.050782615562307 15.000000000000000
18.461367906900652 18.029868216376457 -0.031817510176625 2.000000000000000
26.901911345806937 26.195659483525922 -0.167748347637139 12.000000000000000
17.625098231294736 17.236792702559178 -0.151143912495799 1.000000000000000
18.444917215406896 17.967126227571626 -0.255520984241295 1.000000000000000
18.415336974806198 18.004669596054576 -0.331265931338117 1.000000000000000
17.743666334424841 17.285442977479370 -0.369343095355471 0.000000000000000
17.646037502525541 17.255168872491353 -0.439339862717793 0.000000000000000
17.598484961021128 17.155383746042219 -0.506697352111730 0.000000000000000
7.939378357479772 7.727956546750647 -0.260981363925554 0.000000000000000
7.752988697458790 7.550970316233460 -0.305449966951368 0.000000000000000
7.692735079325334 7.517249278604517 -0.332002450576792 0.000000000000000
17.778483170312899 17.325133448849890 -0.805043663333555 10.000000000000000
7.541700983382453 7.372119288393286 -0.376441233285503 0.000000000000000
7.483219013524645 7.306918843671653 -0.396002844812470 0.000000000000000
7.340592878524490 7.170024095942900 -0.437882859862474 1.000000000000000
7.023475668921760 6.877382077862848 -0.565348012512348 15.000000000000000
7.036552816731907 6.892114160013620 -0.735959246213030 4.000000000000000
7.000200125972608 6.816276803996331 -0.894711059026604 10.000000000000000
6.995213754270677 6.813853987153777 -1.033464046259814 18.000000000000000
6.984171199042581 6.806490956609565 -1.226186398621404 0.000000000000000
7.514485403659025 7.347868622053191 -1.544661757814092 6.000000000000000
6.461909680897442 6.329959578250659 -1.558260905447532 5.000000000000000
4.742971847941736 4.628188310745657 -1.579413546098867 90.000000000000000
3.551947332307916 3.476164068669899 -1.597670809980778 0.000000000000000
11.175397865331430 10.813931206867252 3.658419727015215 1.000000000000000
11.388859667495819 11.026403293888784 2.887496161418575 23.000000000000000
10.613872981234055 10.310592606872177 1.954253117110648 1.000000000000000
27.211027826063614 26.473582494072794 2.268895849068209 28.000000000000000
27.172896985138276 26.426073990766618 1.820265646098888 37.000000000000000
27.256253206236281 26.466972212192964 1.269407513728116 13.000000000000000
27.183341327708987 26.445999033029054 1.154893680673116 16.000000000000000
27.244595080496314 26.424687609824119 1.044573753552932 14.000000000000000
27.340340727275727 26.436114623634637 0.933946316057828 12.000000000000000
27.264388740290673 26.463897054443343 0.823326632144877 15.000000000000000
27.353919255817939 26.469302153260500 0.712697005588021 14.000000000000000
27.265415203970264 26.485694356689962 0.600798243621805 16.000000000000000
27.159330185198115 26.432815338233524 0.490506796407567 15.000000000000000
27.201798352751126 26.393609472212617 0.378471537813770 24.000000000000000
27.287392607140287 26.395174466167603 0.267325323034811 17.000000000000000
27.080198162809808 26.297219649992400 0.157828793135098 19.000000000000000
19.077712038738287 18.551782863612814 0.029574759060226 1.000000000000000
17.578254627643101 17.067517880584575 -0.005165310399300 0.000000000000000
17.545564693888057 16.982705671893740 -0.074597665084640 1.000000000000000
17.695381102594816 17.187013906515965 -0.152496792486416 2.000000000000000
17.645225220015693 17.085602751790859 -0.220860048265295 1.000000000000000
17.732820683241144 17.158204207609316 -0.366827835011481 1.000000000000000
17.661309648758767 17.152949276507030 -0.437930579770258 0.000000000000000
17.529308675503323 16.973614622866847 -0.500264324256426 0.000000000000000
7.979529631235815 7.714534527550484 -0.262817053966753 0.000000000000000
7.815989062273070 7.559850692341072 -0.309858677701541 0.000000000000000
7.702937908048361 7.477606713032792 -0.330799847396767 0.000000000000000
17.750430840286786 17.181325463726694 -0.799552228150756 7.000000000000000
16.861901511515558 16.346299719128531 -0.871670687905679 3.000000000000000
7.516017462738692 7.289672558678951 -0.397454723472298 0.000000000000000
7.372947540338964 7.153278466797325 -0.439396714940510 1.000000000000000
7.057706438761340 6.864429420942585 -0.567501472809903 11.000000000000000
7.082449300663908 6.889867525769162 -0.740456132896305 6.000000000000000
7.034176413883246 6.803320961288563 -0.897417016750448 10.000000000000000
7.029146341903981 6.800894802686869 -1.036397341667132 17.000000000000000
7.026714969549660 6.801523237634122 -1.231600206839994 0.000000000000000
7.541501394606080 7.325075025671921 -1.545838946947860 6.000000000000000
6.482499479786972 6.308179721157778 -1.558594221732984 5.000000000000000
4.760451075773827 4.614929284092792 -1.580910102122878 89.000000000000000
3.554341177319830 3.457358521379685 -1.592917089079469 1.000000000000000
10.251342028695113 9.881558324387790 3.386730011945842 0.000000000000000
11.463668247912382 11.022429564439435 2.894768882451087 22.000000000000000
10.703827373807922 10.325876152484334 1.961247060539927 16.000000000000000
27.391652971126163 26.464745676824847 2.273260079176776 28.000000000000000
27.353366625051375 26.417371119485509 1.823165359853424 38.000000000000000
27.434100371206291 26.455243970818238 1.270402591405872 13.000000000000000
27.358079203822307 26.431798001702624 1.155461848094903 14.000000000000000
27.419389594790182 26.410157178231287 1.044797292189152 12.000000000000000
27.512404508929617 26.418381777232739 0.933776530247723 12.000000000000000
27.439306830729841 26.449355363075149 0.822867534533886 13.000000000000000
27.528989704732119 26.454309521639331 0.711892465570998 16.000000000000000
27.434607025134063 26.465691461157789 0.599636035868882 16.000000000000000
27.316615420951500 26.402164960759727 0.489039324130479 16.000000000000000
27.379339942907041 26.382010249384557 0.376630868335172 24.000000000000000
27.450559130886472 26.369392122654311 0.265255293775266 15.000000000000000
27.248691329689812 26.277824752240235 0.155399629586457 19.000000000000000
19.132223257191669 18.477623428512906 0.028795814517677 2.000000000000000
17.566560616470777 16.940959864402529 -0.004046823043748 1.000000000000000
17.696499865867700 17.009919139148408 -0.078606619438112 1.000000000000000
17.573810174133424 16.955592183776055 -0.146700199606874 1.000000000000000
17.584170062590900 16.912240111599075 -0.216857271140408 0.000000000000000
17.609156021700361 16.997550940400544 -0.290975993437127 1.000000000000000
17.686372981807263 16.998390396585251 -0.362585568601465 1.000000000000000
17.609267960612996 16.987686040545015 -0.432942452738942 1.000000000000000
17.633582489191756 16.956996864038175 -0.503855928488691 0.000000000000000
7.908851221400489 7.622394946131330 -0.287359740700544 0.000000000000000
7.873263630390773 7.562988509918618 -0.313655886595393 0.000000000000000
7.759880521051432 7.481197736539357 -0.334721504008299 0.000000000000000
17.721587369529583 17.037935048992090 -0.794055269866353 9.000000000000000
16.885475998688264 16.258030307080894 -0.869936932768577 3.000000000000000
7.569344695922576 7.291121627623390 -0.401393993190642 0.000000000000000
7.408204703036035 7.139080349626845 -0.441291087855586 2.000000000000000
7.097783943838304 6.856692408196857 -0.570553117859178 9.000000000000000
7.113800355925606 6.873965576434060 -0.742372720540136 16.000000000000000
7.068143727688768 6.790207461659556 -0.900125444007124 9.000000000000000
7.063068719621523 6.787776509588362 -1.039333164068572 18.000000000000000
7.072209289719763 6.798991461877243 -1.237739431497725 0.000000000000000
7.568445912276126 7.302176939819162 -1.547017846228279 6.000000000000000
6.529208411854024 6.269641966624306 -1.561104788714162 5.000000000000000
4.775052586710443 4.599099983926145 -1.581154188472515 55.000000000000000
3.578179464038625 3.436475254707489 -1.594923867584269 1.000000000000000
7.733358634477576 7.390613249032135 2.653947971180214 0.000000000000000
11.454423385770459 10.940167967821189 2.884494034008470 31.000000000000000
10.650946125062998 10.208094466527854 1.948780746166114 23.000000000000000
27.575440784846567 26.457710422152978 2.277796202101080 28.000000000000000
27.534100459296184 26.407707202137168 1.826050417972283 36.000000000000000
27.623812727050382 26.453586858596978 1.271705541794773 13.000000000000000
27.527233798144113 26.411178822955755 1.155879005433019 14.000000000000000
27.594409810957767 26.394723498820724 1.045006820626291 12.000000000000000
27.620265767947981 26.439408021591369 0.822460747617512 14.000000000000000
27.710101790051155 26.443921612238888 0.711116029576754 14.000000000000000
27.630128893964969 26.469570187912474 0.598546840526857 15.000000000000000
27.494340137070974 26.389969234361516 0.487544978953752 17.000000000000000
27.560033249076383 26.372235371002475 0.374761677942776 22.000000000000000
27.616784946027437 26.345528263714073 0.263146500636444 15.000000000000000
27.423184958222240 26.263064528610983 0.152881644124824 18.000000000000000
19.195185556658732 18.411546659043090 0.027795121441597 3.000000000000000
18.700377633439036 17.890006253587977 -0.036337478941383 0.000000000000000
17.722264170157178 16.918810406910936 -0.078466753220846 1.000000000000000
17.593638951288629 16.859356326320714 -0.146206986921026 1.000000000000000
17.571720392717282 16.785973765746057 -0.214889729861120 1.000000000000000
17.527278919731458 16.805318943816502 -0.285555681834001 1.000000000000000
17.659460986298871 16.858207380192340 -0.359342108148781 2.000000000000000
17.734065761482508 16.989844080675923 -0.437444033346983 1.000000000000000
17.527854803730271 16.743232928659623 -0.495403133169339 0.000000000000000
8.052043823025665 7.730564822751234 -0.267790800602945 1.000000000000000
7.975224628954325 7.633215020459808 -0.291928104524480 0.000000000000000
7.808110338139867 7.476404205693484 -0.337686654632230 0.000000000000000
17.796989239968838 16.993157718480163 -0.796267934854839 8.000000000000000
16.937782738375748 16.197079060188301 -0.870581270119385 3.000000000000000
7.602138245140759 7.273498840253488 -0.402851743038382 0.000000000000000
7.443447942144210 7.124718767103161 -0.443187996362467 2.000000000000000
7.137887205331998 6.848753169820554 -0.573607952403006 7.000000000000000
7.139258750038307 6.852578215075432 -0.743257610659204 12.000000000000000
7.105031162650146 6.779590151688623 -0.903422829529542 8.000000000000000
7.088203849591892 6.766546726823691 -1.040341719871284 14.000000000000000
7.109020179931130 6.788290003002430 -1.241716013300667 0.000000000000000
7.595317503252825 7.279175600960677 -1.548198439380290 6.000000000000000
6.540907516935238 6.239811224013785 -1.558681180727600 5.000000000000000
4.781060674634654 4.575671271244378 -1.577637852472156 30.000000000000000
3.594199933253751 3.429523240051424 -1.598396148857013 2.000000000000000
7.801440668790965 7.403807946603003 2.665677439913801 3.000000000000000
11.453471721821554 10.866142769313647 2.876035831331454 23.000000000000000
10.793624086844806 10.271369074982118 1.962909250899672 23.000000000000000
27.753688065852977 26.444235640537485 2.281944133452471 27.000000000000000
27.709269536321930 26.391640422578270 1.828642277931673 35.000000000000000
27.799267081920821 26.437228895359802 1.272590606006439 13.000000000000000
27.711139942059660 26.403405696393371 1.156624174267878 14.000000000000000
27.787156502800869 26.394796269495963 1.045541708771922 14.000000000000000
27.696320439886573 26.410732138387075 0.933772507397159 13.000000000000000
27.798565557213053 26.425761748172782 0.822006246185506 18.000000000000000
27.903153884453967 26.443521077047500 0.710410125611426 14.000000000000000
27.820174778444379 26.466919528149582 0.597422204353562 16.000000000000000
27.672307156843353 26.376866183213707 0.486035904291692 18.000000000000000
27.743905296934713 26.364251826387452 0.372863542526295 21.000000000000000
27.777326881164438 26.315353972779427 0.261076194183493 13.000000000000000
27.603734973350385 26.252866341096912 0.150274219357685 17.000000000000000
19.240377961064485 18.328865690644641 0.027229319704548 5.000000000000000
17.614299188282782 16.756847862445603 -0.003927644287440 0.000000000000000
17.645062731265337 16.732451644170247 -0.074933801511588 2.000000000000000
17.858613137580019 16.992309299919384 -0.154844275055728 0.000000000000000
17.693264773421156 16.785258193245227 -0.218456772464872 0.000000000000000
18.431761572793082 17.536239355508037 -0.324817248961480 3.000000000000000
17.866180065740735 16.935968230331994 -0.367604565465006 2.000000000000000
17.598857095839708 16.748799721250244 -0.428084693911706 0.000000000000000
18.316651557581746 17.362912535696829 -0.538207457772973 0.000000000000000
8.142469563422015 7.762270718414193 -0.274482119108145 1.000000000000000
8.032899825444659 7.635621060247615 -0.295610736885530 0.000000000000000
7.982228857415605 7.562970147143190 -0.320647758287173 0.000000000000000
17.761057802232770 16.844780679155456 -0.790336106662846 11.000000000000000
16.966470270570539 16.114191003758478 -0.869324757346553 4.000000000000000
7.655588772069166 7.274442330335717 -0.406799038662158 0.000000000000000
7.562603775226089 7.164768268254619 -0.425249981229474 1.000000000000000
7.178016008899147 6.840614394821252 -0.576665988320545 6.000000000000000
7.170530381512946 6.836418260607729 -0.745178388236589 17.000000000000000
7.150751915121320 6.776732425384544 -0.908482527990840 7.000000000000000
7.116204795954312 6.747859218409921 -1.041995380193410 10.000000000000000
7.148759819695263 6.780043034621947 -1.246417797196161 0.000000000000000
7.619208908712684 7.253435154916609 -1.548591864957850 6.000000000000000
6.564072881029161 6.220326284872655 -1.559939683953999 5.000000000000000
4.798377456677054 4.562277468514953 -1.579137016100991 18.000000000000000
3.604656423768493 3.417770944169686 -1.598579012306083 2.000000000000000
7.840568831868140 7.390427152601752 2.669315486190571 2.000000000000000
11.709172289493209 11.026792816045067 2.920782176579520 5.000000000000000
11.512836736538819 10.859953363619162 2.054773629168000 20.000000000000000
28.040209628679708 26.530747778375755 2.292969868399854 47.000000000000000
27.899268354806523 26.388303192493076 1.831914743728464 37.000000000000000
28.162082168994097 26.594563994706810 1.278596706816131 31.000000000000000
27.895325417322166 26.394668680405687 1.157354282248933 14.000000000000000
27.997799555698354 26.410190900927212 1.046399240922496 18.000000000000000
27.877593101618714 26.399385597106914 0.933708689208098 14.000000000000000
28.053175846941834 26.482110594211449 0.822393095425263 36.000000000000000
28.389515591701041 26.714405590521658 0.711802928573711 25.000000000000000
28.244472573468542 26.681604628993142 0.597027471141525 35.000000000000000
27.844662864250331 26.357372918602486 0.484516991392817 20.000000000000000
27.916340439328085 26.344394406443421 0.371007451493399 19.000000000000000
27.778688586005675 26.236277312398713 0.147727488694177 15.000000000000000
19.167946397310754 18.137283162329979 0.029592646942610 9.000000000000000
17.627247204362472 16.655342693708924 -0.003569056376188 1.000000000000000
18.092885145002008 17.032191706011993 -0.088771025936027 1.000000000000000
17.643648457837180 16.677979351235585 -0.145654208599140 2.000000000000000
17.659353964483387 16.640114315674545 -0.215644308165559 0.000000000000000
18.026616661040400 16.969135745414789 -0.373581495157188 1.000000000000000
18.195537365199936 17.187622904847288 -0.457711372814828 0.000000000000000
17.550457841580727 16.538062356886890 -0.492040158747999 1.000000000000000
8.194717425085333 7.758684264832070 -0.277472543921532 4.000000000000000
8.105502870157322 7.651060408633263 -0.300784996277310 1.000000000000000
8.036845710689704 7.562521203046543 -0.324150574293459 1.000000000000000
17.941610573280954 16.897214997429671 -0.800279879635920 11.000000000000000
16.962510581404768 16.001518073100783 -0.865449373380170 4.000000000000000
7.688376502180199 7.256471379446445 -0.408262419512617 0.000000000000000
7.606912848533621 7.157731064418030 -0.428214410162282 1.000000000000000
7.215211976423349 6.829615397998438 -0.579278981557139 6.000000000000000
7.198820565311125 6.817464081663410 -0.746584186202026 13.000000000000000
7.205384863043158 6.781512074550946 -0.915306109406782 5.000000000000000
7.152988450349538 6.736918900398535 -1.045581691888611 8.000000000000000
7.194391543972380 6.776813341326729 -1.252567615694841 0.000000000000000
7.634268558349945 7.219740451640618 -1.546619413555653 5.000000000000000
6.584268706505437 6.198192867703980 -1.560279039057615 5.000000000000000
4.812789170512813 4.546316610105091 -1.579383349079610 13.000000000000000
3.609496553126032 3.401280463235985 -1.595471643886120 3.000000000000000
7.894307628225809 7.389901062605936 2.676992497623646 1.000000000000000
11.731717791268915 10.973382055586654 2.917149382863405 4.000000000000000
10.723966822672745 10.071691486635537 1.943146599353947 13.000000000000000
28.433129090846069 26.713384356779137 2.310670386728324 3.000000000000000
28.400384425525772 26.671977871344531 1.849888629343629 19.000000000000000
28.473523124195008 26.700761617422714 1.283127416198972 3.000000000000000
28.361344234690673 26.645983669128988 1.164604826998732 28.000000000000000
28.473210388093037 26.668779768133703 1.052306449126135 13.000000000000000
28.267246870169398 26.580275337316138 0.936797851554785 30.000000000000000
28.502248778820533 26.716322361156195 0.824920095763524 7.000000000000000
28.512176420066627 26.746811932374889 0.596097264112311 5.000000000000000
28.023082737402529 26.342437108363214 0.482979159661807 21.000000000000000
28.112461789843664 26.345374784776332 0.369021502865290 16.000000000000000
27.952646963784414 26.297972819292042 0.258863009133662 13.000000000000000
27.953856124570727 26.218780034801100 0.145166474223511 16.000000000000000
19.173828736612116 18.019597287604910 0.029984077024738 11.000000000000000
18.146231939848729 17.019287081466722 -0.017912349464043 0.000000000000000
18.171478917170457 16.988657396256166 -0.090398702501424 0.000000000000000
17.568660205241272 16.444057649132439 -0.210532069711608 1.000000000000000
17.618931183912260 16.550186608352156 -0.284733144369345 0.000000000000000
17.780559239767907 16.628947128334730 -0.359672309759593 1.000000000000000
17.751038200645453 16.609823414868117 -0.501183701050690 2.000000000000000
8.223271737990911 7.733509053168021 -0.278183564824651 2.000000000000000
8.199119694670102 7.684692811306064 -0.308048177250956 3.000000000000000
7.956093590483558 7.463163951218107 -0.346926901030848 0.000000000000000
17.981332869806902 16.819121558722095 -0.799930610319031 9.000000000000000
17.022716108418116 15.948423852249199 -0.866813217463234 5.000000000000000
7.727073674437558 7.243654923857015 -0.410439568809723 0.000000000000000
7.657212706927568 7.155757622514201 -0.431917768734675 1.000000000000000
7.252415281624845 6.818407284997811 -0.581894829525034 5.000000000000000
7.244813905423292 6.814215935504329 -0.751096622436208 8.000000000000000
7.239412187416306 6.767636283732124 -0.918026643114359 4.000000000000000
7.195683643966515 6.731065371919392 -1.050458262344736 7.000000000000000
7.245964899501113 6.778591370050037 -1.260166477141664 0.000000000000000
7.652103213646831 7.188608769619044 -1.545436798443938 5.000000000000000
6.604386316849975 6.175988243471124 -1.560619560787996 5.000000000000000
4.847242070574979 4.547708989053959 -1.588409983739952 11.000000000000000
3.619850337044127 3.389475291779004 -1.595655444965397 2.000000000000000
7.983319769823029 7.420234797540353 2.694363296913857 6.000000000000000
12.083244593555431 11.216158839882695 2.981193783417684 0.000000000000000
10.867201164043383 10.133571178503168 1.957253649234917 58.000000000000000
29.509499241121400 27.521631815460772 2.371478154093113 9.000000000000000
29.500964746476079 27.501974229567715 1.895967477437297 6.000000000000000
29.568913437221731 27.525341097683608 1.308891299721100 6.000000000000000
29.497386103351808 27.509244561632649 1.187229545754976 4.000000000000000
29.566560017267864 27.489641484442210 1.069903262512597 6.000000000000000
28.546738809258532 26.655756278362809 0.938160258529359 3.000000000000000
29.595271522471755 27.537789588528945 0.834514215012673 10.000000000000000
29.504173761794551 27.560063446174752 0.717620759273909 3.000000000000000
29.575331659900481 27.541838300258746 0.597576176848279 10.000000000000000
28.551867150403169 26.649022316689745 0.481103156750311 2.000000000000000
29.584616250685830 27.516793998077951 0.360683116731954 5.000000000000000
29.524915245704229 27.567700878364647 0.244165056320095 4.000000000000000
28.132177716164243 26.203081064345760 0.142552914750474 6.000000000000000
19.282392524356538 17.996566949699258 0.027802118017969 9.000000000000000
17.562067147556832 16.378053573342193 -0.140297975410283 0.000000000000000
18.916293059137697 17.559968470055544 -0.264270718665252 7.000000000000000
17.594468623805810 16.347125323551808 -0.348765983223220 1.000000000000000
17.597760771438764 16.409781558448117 -0.421789923770330 0.000000000000000
8.221949813180515 7.681688681529522 -0.276040076446242 0.000000000000000
8.227446624062058 7.659488635341255 -0.308771663429635 3.000000000000000
8.142151027661418 7.606874766588284 -0.332911512575611 1.000000000000000
17.887730932101942 16.620020659398406 -0.789910782244510 8.000000000000000
17.032561258679806 15.849406631583975 -0.864127393129329 6.000000000000000
7.777707702239674 7.241212378542166 -0.414042767862314 0.000000000000000
7.692652989554094 7.140322434917671 -0.433786337947100 1.000000000000000
15.750307200461160 14.640067868692526 -0.948668000543889 9.000000000000000
7.298547106119773 6.814955512588853 -0.585859265729266 5.000000000000000
7.308673007582733 6.826538036515238 -0.758718514342098 3.000000000000000
7.288270457631868 6.766676592557964 -0.923684635527237 4.000000000000000
7.235457720077116 6.722381027185421 -1.054694410280325 7.000000000000000
7.265167396671371 6.751473016714755 -1.259819259519101 0.000000000000000
7.681536364791261 7.167878710869388 -1.547412408451004 6.000000000000000
6.618566558954083 6.148582852322178 -1.559119594009857 5.000000000000000
4.861597247124747 4.531575839603004 -1.588659100400749 10.000000000000000
3.632961831565941 3.379968200336947 -1.597485617744997 3.000000000000000
11.610252853401285 10.730617936656095 2.051381796871463 2.000000000000000
33.224775479634147 30.730856341869064 2.598108699347129 28.000000000000000
29.639720584145920 27.440093601236917 1.896495785372046 2.000000000000000
29.650900909669385 27.460899511017629 1.187035594900650 5.000000000000000
29.696451448524378 27.419417110869787 1.069022257207619 0.000000000000000
29.653198437999961 27.485784887100074 0.951903411962893 9.000000000000000
33.356191522062467 30.781459498001418 0.873244163371175 10.000000000000000
29.664627479443805 27.484015387579625 0.478609666983635 9.000000000000000
29.738204577089476 27.468080242348108 0.358833437435615 2.000000000000000
29.672690938390904 27.513918017666619 0.242139902147233 1.000000000000000
19.340700586971284 17.927261815428572 0.026865264452962 8.000000000000000
29.758654607378645 27.530886539957919 -0.116121392047090 1.000000000000000
17.558523553505093 16.263738006918672 -0.139030736494650 0.000000000000000
26.928482409792277 24.915605656182002 -0.271752474084581 7.000000000000000
26.482153048871361 24.433390283611082 -0.363125242641430 3.000000000000000
17.587649123596190 16.230184571826250 -0.346652991585651 1.000000000000000
21.263784526952190 19.620895546458009 -0.613457342902888 11.000000000000000
20.656848225908636 19.141587519278431 -0.664081414460731 12.000000000000000
8.219791635017385 7.602498820217313 -0.305923237836109 0.000000000000000
8.200085770934232 7.608303994518117 -0.336735470985147 4.000000000000000
18.062744803116860 16.665364232620902 -0.799451747193160 10.000000000000000
17.083383167850393 15.787995476848742 -0.864780463593110 6.000000000000000
7.828410999216643 7.238498037265217 -0.417650261723363 0.000000000000000
16.212102736903752 15.005860192241180 -0.923090822550074 8.000000000000000
7.646321308637726 7.074091407680420 -0.456125138444379 2.000000000000000
7.335784006351014 6.803380750229408 -0.588481390793723 5.000000000000000
7.369723379109550 6.835871404167392 -0.765828354459507 5.000000000000000
7.319335251308082 6.749822284128577 -0.925823965054356 4.000000000000000
7.275251957537701 6.713496714760893 -1.058933782403471 6.000000000000000
7.707973929804421 7.144432663308500 -1.548600497415199 5.000000000000000
6.644378396201940 6.131370106202681 -1.561304262613303 5.000000000000000
4.881671730121882 4.520326000834125 -1.591418104891734 10.000000000000000
3.643235416035217 3.368065956757103 -1.597670882424035 3.000000000000000
10.739028779812822 9.873514768158778 2.690032798774853 0.000000000000000
33.218199803085788 30.513424525373502 2.589307874636607 31.000000000000000
33.316169975380610 30.587738247927639 2.062374076961231 44.000000000000000
33.291038203047016 30.617656328732721 1.533531639480574 44.000000000000000
33.264831031614541 30.501381030919021 1.400054610319750 36.000000000000000
33.322457579887349 30.605316666261281 1.267156504760003 36.000000000000000
33.340013340040414 30.529241283443646 1.134301932808875 42.000000000000000
33.328944149764204 30.638212313941985 1.003768621667968 38.000000000000000
33.313930517241843 30.531352286820130 0.869876508353397 42.000000000000000
33.302236649660209 30.639704934469549 0.739755370083016 11.000000000000000
33.256540422267470 30.505711136611858 0.604725483530455 50.000000000000000
33.359789537353855 30.651061899736106 0.473368474083844 24.000000000000000
33.363801472017698 30.562641156899943 0.339472014760759 18.000000000000000
33.294729353995258 30.618668005380236 0.208917659105681 11.000000000000000
19.461117867871121 17.914037878129257 0.024373311823995 5.000000000000000
19.841475764409953 18.200148836986315 -0.064779981059914 1.000000000000000
19.785386849392914 18.216675311159683 -0.141576024115019 0.000000000000000
17.604900688946397 16.195121071045293 -0.139621442595854 0.000000000000000
17.819126364288675 16.336434390253260 -0.216692039469664 0.000000000000000
17.580224359397985 16.113488227026217 -0.344536651179956 1.000000000000000
19.857071201896652 18.221231613370307 -0.536882502421070 1.000000000000000
17.833499618481223 16.348091451814511 -0.499099705191147 0.000000000000000
19.790278462490651 18.170543382077071 -0.690231020518216 4.000000000000000
17.495118642770894 16.109734157419140 -0.690305646706748 1.000000000000000
8.216197266310932 7.572547963515035 -0.336233448907275 2.000000000000000
18.080663999560532 16.568370953394812 -0.797600417633189 10.000000000000000
17.107239092787491 15.702413708600872 -0.863287617148253 8.000000000000000
7.867176307128195 7.225020054953141 -0.419837621608942 0.000000000000000
7.752041085745891 7.145736347007578 -0.438601145857823 1.000000000000000
7.678542277964307 7.056029508401167 -0.457660091861669 2.000000000000000
7.384996047021024 6.802085320046125 -0.592902021124372 4.000000000000000
7.410017720922693 6.826582438643648 -0.769318202303366 5.000000000000000
7.362314393744695 6.743209584442326 -0.930314700866982 5.000000000000000
7.321027670652929 6.709587089775425 -1.064464722578680 6.000000000000000
8.397338933333296 7.698563442301733 -1.531293736512588 4.000000000000000
7.728433005936094 7.115716650647435 -1.548210950768322 5.000000000000000
6.664254316356184 6.108955356122934 -1.561648399424674 5.000000000000000
4.893030356236596 4.501618465024009 -1.590414518168765 10.000000000000000
3.653464567577616 3.356143919431894 -1.597856720157832 4.000000000000000
10.434345068787508 9.528096729722002 3.360593931429292 18.000000000000000
10.769216826309171 9.834159553420768 2.688868736416151 6.000000000000000
10.858433878046977 9.924207419674730 1.940899939630265 3.000000000000000
33.201601840834869 30.288377847577742 2.579955990901257 31.000000000000000
33.302617646207636 30.365033981614253 2.055092964346631 45.000000000000000
33.283687683177625 30.400211595733531 1.528318382577062 41.000000000000000
33.253968585999573 30.281507139119057 1.395208149179272 39.000000000000000
33.326711562997744 30.398584860157634 1.263110088197812 41.000000000000000
33.333397960907433 30.431387020393615 1.000520834648341 41.000000000000000
33.314918368452567 30.322028419194837 0.867000650787322 30.000000000000000
33.306778824135627 30.432901014364674 0.737307793029299 45.000000000000000
33.296155875990813 30.331341758438541 0.602790469402690 10.000000000000000
33.346342624735179 30.428099774371063 0.471741330996707 20.000000000000000
33.358828297992233 30.347855233189648 0.338276004772372 13.000000000000000
33.284239338728419 30.398533241302488 0.208209473857335 13.000000000000000
19.572733973748004 17.892177620836861 0.022093516989820 4.000000000000000
31.735171363935365 29.023762998982242 -0.029491445794987 4.000000000000000
17.896706438472840 16.287063651426521 -0.077682739167083 0.000000000000000
17.639086001746492 16.115727379532849 -0.139776089657445 3.000000000000000
17.767264764413845 16.179147821025545 -0.213257184306685 2.000000000000000
17.982933230344045 16.431227417713913 -0.294696520575411 1.000000000000000
18.011162726818871 16.387672764780021 -0.363707195621908 1.000000000000000
17.665982213136928 16.139181700896089 -0.419390398329204 1.000000000000000
18.130963411958010 16.562068388278142 -0.587092519794297 0.000000000000000
18.175257019015028 16.549487724810717 -0.658835591480744 1.000000000000000
8.271205985911770 7.570864095009789 -0.339755575082431 0.000000000000000
18.101102785802563 16.474103795227506 -0.795963838401774 11.000000000000000
17.136660868735262 15.622138637315487 -0.862272484081281 9.000000000000000
7.927017413770021 7.229631862082073 -0.424521746527890 0.000000000000000
7.784508475492072 7.127288094635439 -0.440108211554237 1.000000000000000
7.722760235658575 7.048261722879246 -0.460715228481267 2.000000000000000
7.431280045122629 6.797920581783693 -0.596877752958167 4.000000000000000
7.480285577856275 6.843091923890995 -0.777991961791849 58.000000000000000
7.399339384889092 6.731203034627050 -0.933634044591456 5.000000000000000
7.366858057041378 6.705435616313146 -1.069999507109924 6.000000000000000
8.467216744686819 7.708733516422186 -1.542576752061327 6.000000000000000
7.748783186914266 7.086940501437361 -1.547822379656406 6.000000000000000
6.684049330024028 6.086469183192193 -1.561993688212840 5.000000000000000
4.907218187903593 4.485327145344982 -1.590666298402114 10.000000000000000
3.666477000848218 3.346488187619268 -1.599689307647871 4.000000000000000
10.460431624745215 9.487262587141380 3.358433650788838 11.000000000000000
10.864733431133189 9.851985833070508 2.700983048129743 16.000000000000000
10.894718262619840 9.889675434598374 1.940728922105571 7.000000000000000
33.192766756372308 30.071816202194064 2.571166996541893 36.000000000000000
33.284933777827348 30.140128212455600 2.047680041860576 43.000000000000000
33.275219522176869 30.183186680284194 1.523110755731126 42.000000000000000
33.262837582545210 30.080740974998577 1.390922972289294 13.000000000000000
33.332905194900889 30.194860258089989 1.259135530288002 15.000000000000000
33.352809386773473 30.330611773634274 1.130822428674808 32.000000000000000
33.327874348150416 30.216890810029930 0.997145957963934 23.000000000000000
33.302918701394887 30.102423181263767 0.864001289782579 23.000000000000000
33.319212316066327 30.234453660021806 0.734925835193724 10.000000000000000
33.260442876056146 30.090384998180795 0.600646738365702 19.000000000000000
33.334719321913433 30.208266582524175 0.470117042065961 17.000000000000000
33.331874978531715 30.114824822478923 0.337192303494102 14.000000000000000
33.260706144285749 30.168164512611291 0.207614984638549 8.000000000000000
19.672474749840070 17.859117068924476 0.020101532843589 3.000000000000000
17.442853540292507 15.774931468865589 -0.061954530558913 0.000000000000000
17.646019479863430 16.012390077924429 -0.138943722675370 5.000000000000000
17.843220809364329 16.136401697045081 -0.215038681915008 2.000000000000000
17.799855250505274 16.156634648823953 -0.284972923001236 1.000000000000000
17.821166564040226 16.108467072196795 -0.352763117817036 2.000000000000000
17.720769165745772 16.078236259044708 -0.420316617316520 1.000000000000000
17.791712260667577 16.089742627768914 -0.492371132640384 0.000000000000000
17.558665603174862 15.890614964440488 -0.616599824914973 0.000000000000000
17.488042569016489 15.885288057069282 -0.684188222725049 1.000000000000000
18.103145259146572 16.364020146048141 -0.793033392951466 6.000000000000000
17.168716539782022 15.544518508047481 -0.861497188550458 9.000000000000000
7.993021761735177 7.239104624893329 -0.429923974054685 1.000000000000000
7.822963956700496 7.113903387830838 -0.442354132681652 1.000000000000000
15.432071078154404 14.007802155937952 -0.963506210382134 13.000000000000000
7.480631580325329 6.796103282317972 -0.601306546561442 4.000000000000000
7.505687038436903 6.820343032560160 -0.778898641233242 255.000000000000000
7.442373441033656 6.724160450827256 -0.938131550808357 5.000000000000000
7.412743329627836 6.701039605005015 -1.075538086893915 6.000000000000000
8.516414545188189 7.700511864028172 -1.548803230777755 6.000000000000000
7.780892417445978 7.068354255517391 -1.550595010527434 6.000000000000000
6.706726159065737 6.066443172600991 -1.563261686106962 6.000000000000000
4.924260586443150 4.471422957459048 -1.592173954644083 9.000000000000000
3.679461260314132 3.336778787945875 -1.601522803923765 4.000000000000000
9.956660083226682 8.986823151294324 3.211686140773922 19.000000000000000
10.993960263477032 9.909856350978089 1.948863050564349 6.000000000000000
33.182821404694906 29.855658048160898 2.562384231884405 37.000000000000000
33.272058351048287 29.921021512848554 2.040549732866888 42.000000000000000
33.262653636612733 29.963929511357364 1.517818001358555 40.000000000000000
33.234824825670714 29.848406245662069 1.385691733254515 34.000000000000000
33.287262275693102 29.946291834210356 1.254023754553191 24.000000000000000
33.343732805994250 30.113617106770072 1.126957674039061 6.000000000000000
33.288390110112552 29.973522261275285 0.993296618317002 19.000000000000000
33.277822926427540 29.872648952886067 0.860880807032983 28.000000000000000
33.285867782502500 29.996365279810021 0.732244143640520 25.000000000000000
33.241385823939986 29.865982504626821 0.598560787116288 18.000000000000000
33.321965742733511 29.988883988719948 0.468498931360345 19.000000000000000
33.342606522188042 29.916847320573261 0.335915927843869 9.000000000000000
17.304304000203359 15.539408206574194 0.079742047704993 0.000000000000000
19.781211988450728 17.833519953851095 0.017878857586409 2.000000000000000
17.283091898371229 15.527409328349954 -0.055897260637429 1.000000000000000
17.769398231559386 16.012343716111324 -0.142397561915614 3.000000000000000
18.049576954853116 16.267205919177599 -0.294581179185948 1.000000000000000
18.071125699932256 16.218352087497252 -0.363132877992351 1.000000000000000
17.703367282998261 15.953662422245323 -0.417475505861443 0.000000000000000
17.766913935469969 16.016383294278050 -0.560288771800658 0.000000000000000
17.428256993179783 15.724433372855373 -0.677349971940283 3.000000000000000
18.200692645388035 16.338438349778876 -0.797003549705875 9.000000000000000
17.218427823274194 15.482674723356212 -0.862158187559792 8.000000000000000
8.053123034749197 7.243024295224096 -0.434618924659202 1.000000000000000
7.879555944923874 7.115890879216451 -0.446813602768722 1.000000000000000
15.464388029808950 13.941504016846011 -0.962885250925522 12.000000000000000
15.113988159243018 13.589722168964229 -0.988407699873192 7.000000000000000
7.530054856040482 6.794017090238562 -0.605739512605769 4.000000000000000
7.561149346566292 6.823283239411218 -0.784990888454063 255.000000000000000
7.491471423490589 6.722022642133552 -0.943808108483548 5.000000000000000
7.449661802574231 6.688727418130348 -1.079146460182430 5.000000000000000
8.553703063634391 7.681791052370997 -1.552140175852031 7.000000000000000
7.801052709321888 7.039414071127318 -1.550209243548000 6.000000000000000
6.729339955842614 6.046325524711207 -1.564531126637506 6.000000000000000
4.941261199530256 4.457449128379839 -1.593682686444425 10.000000000000000
3.689574714322087 3.324729776950257 -1.601710764083283 4.000000000000000
7.520369211624025 6.738937390160402 2.527170664293705 3.000000000000000
12.524791211624935 11.228017137698757 3.029313561668534 10.000000000000000
12.250309046162128 10.928445066060078 2.108830406835474 2.000000000000000
33.165773209722751 29.634664882710261 2.553236849379184 38.000000000000000
33.264047475759391 29.707656146847519 2.033700870843797 42.000000000000000
33.245961542854253 29.742474334940937 1.512440678961920 39.000000000000000
33.211587310711316 29.621893732445841 1.380626583622062 38.000000000000000
33.315250263320678 29.764570840111801 1.250596360159937 31.000000000000000
33.309597251118177 29.875829266225061 1.122655786474121 27.000000000000000
33.289566439172418 29.767902260507725 0.990064968409371 35.000000000000000
33.284529764519711 29.672496336980963 0.858115928282857 22.000000000000000
33.275227497847105 29.780083306300504 0.729731289722020 29.000000000000000
33.239162696567838 29.657932741701018 0.596530729692121 10.000000000000000
33.323075306149143 29.783193176863456 0.466868743257147 20.000000000000000
33.310331321413173 29.682140664727392 0.334861793190563 20.000000000000000
17.317794366117710 15.445563454530351 0.079804893563276 2.000000000000000
17.342703074488508 15.523555901571413 0.009997959891309 2.000000000000000
17.299620367239232 15.436262442334240 -0.055623579164639 2.000000000000000
17.306417692072600 15.497935908525584 -0.124390447898034 2.000000000000000
17.323306183041836 15.463431405910434 -0.191453587667524 2.000000000000000
17.314389694874020 15.511697552356019 -0.260381689461824 2.000000000000000
17.342568151445622 15.473218567820382 -0.326301869656577 2.000000000000000
17.381502370997989 15.563597147200070 -0.398746173646755 2.000000000000000
17.331604039900739 15.470209766442011 -0.462306931141945 2.000000000000000
17.325383810143858 15.520603628423146 -0.531403598808205 2.000000000000000
17.341441655928328 15.485384611172961 -0.597678872885388 3.000000000000000
17.301494902609754 15.506253646451555 -0.666010267417294 3.000000000000000
17.346832074236062 15.483011273898349 -0.732763437541108 1.000000000000000
17.309660590361037 15.506358524246245 -0.800829202001277 2.000000000000000
17.210757584514031 15.370784099997081 -0.858273795507920 6.000000000000000
8.146766461504660 7.274952220655486 -0.443243305119353 2.000000000000000
7.945348837112831 7.125312633918199 -0.452383710368490 2.000000000000000
15.484398929951420 13.864641895262764 -0.961120943839600 13.000000000000000
15.150826067668183 13.529847418837051 -0.988305504872591 8.000000000000000
7.588635206708609 6.799387616370147 -0.611525318502446 5.000000000000000
7.601605688022417 6.813075099542544 -0.788495210980979 255.000000000000000
7.534594473140099 6.714513670572444 -0.948312938762996 5.000000000000000
7.498640126569798 6.686422429307299 -1.085337145520465 5.000000000000000
8.578975426183360 7.652704574105371 -1.552585650983474 6.000000000000000
7.824087879784637 7.012956973917362 -1.550614876506775 6.000000000000000
6.739969690931871 6.016104692102680 -1.562114714665486 6.000000000000000
4.952358363243636 4.438558291602543 -1.592682014715779 9.000000000000000
3.693945381136789 3.308100210875530 -1.598605993003797 4.000000000000000
7.530602397854729 6.703346573413249 2.523551463738571 7.000000000000000
12.290118685935424 10.889015934125901 2.108584629490613 2.000000000000000
33.147582122456534 29.414153100711445 2.544095687018435 38.000000000000000
33.248934620260492 29.489440997670762 2.026582602245254 42.000000000000000
33.234138030246939 29.526781057860909 1.507251147287904 41.000000000000000
33.202213240893101 29.409105454725555 1.375962436389227 41.000000000000000
33.276202014407623 29.525025304780613 1.245700742011782 24.000000000000000
33.307230281730654 29.667691050629657 1.118969927374318 23.000000000000000
33.292715154576015 29.565272626924823 0.986881327134328 31.000000000000000
33.263152810598790 29.448956153900788 0.855071652737662 14.000000000000000
33.239444114304220 29.543117918806054 0.727065277797026 3.000000000000000
21.951027444305748 19.546265104508258 0.392986995116129 0.000000000000000
33.311117532500724 29.567302945373768 0.465258353755156 12.000000000000000
17.305242117192730 15.392090700842388 0.146689858875264 0.000000000000000
17.309661086633227 15.333514246486814 0.080392592703426 2.000000000000000
17.322897451677861 15.400807794037519 0.011169623536475 2.000000000000000
17.294559399528101 15.326859971158193 -0.054659571603022 2.000000000000000
17.322818269325673 15.406761592343457 -0.123974956676156 2.000000000000000
17.315399376571769 15.351300030716764 -0.189922614111854 2.000000000000000
17.312813658148180 15.404724180842393 -0.258881127535708 2.000000000000000
17.358731075176664 15.382018353794372 -0.325466886742130 2.000000000000000
17.373930665729720 15.451215969081680 -0.396510015441576 2.000000000000000
17.320641039189173 15.355480548439907 -0.459664863951723 2.000000000000000
17.332828607181046 15.421511534758650 -0.529599201636290 2.000000000000000
17.339677189149022 15.378452040687080 -0.595124632080457 3.000000000000000
17.290893747099641 15.391480828783969 -0.662625303350550 3.000000000000000
17.387203106890858 15.412727485514239 -0.732810048506980 3.000000000000000
17.304945836235820 15.396883545796783 -0.797407205648129 3.000000000000000
17.220616239815353 15.274822692851288 -0.855823315626922 5.000000000000000
8.176728360834701 7.252416103095591 -0.444381494377921 2.000000000000000
7.999130211120703 7.124053831088695 -0.456484826784210 2.000000000000000
15.510085847984730 13.793041810037195 -0.959929367442370 11.000000000000000
15.160251745335296 13.446414889327009 -0.985520464775299 8.000000000000000
14.780375786303152 13.164914936794879 -1.006584385346655 7.000000000000000
7.638225873622164 6.796735791769507 -0.615967181764733 4.000000000000000
7.657233717888470 6.815453598911915 -0.794596306354897 255.000000000000000
7.580781940302338 6.709323043254884 -0.953409414971418 5.000000000000000
7.550713140451063 6.686389883311818 -1.092176919126748 4.000000000000000
8.604142515392386 7.623529839111733 -1.553032654278107 6.000000000000000
7.847027889083486 6.986420547546579 -1.551021863852336 6.000000000000000
6.756442131543110 5.990864635785584 -1.561542566320591 5.000000000000000
4.960439599550814 4.417249808033677 -1.590426424206064 9.000000000000000
3.698238236839629 3.291461704048622 -1.595501410561455 5.000000000000000
7.597745931693864 6.715551505657196 2.535264190667764 1.000000000000000
10.914446759407268 9.644375972327040 1.923823146645009 6.000000000000000
33.128248841235404 29.194122076701596 2.534961481147293 41.000000000000000
33.235717576377965 29.274297386238750 2.019608636298251 41.000000000000000
33.218189883313599 29.308878396425378 1.501977354982684 44.000000000000000
33.197795257623518 29.201995597296765 1.371461641514879 41.000000000000000
33.263031612036464 29.309718704455079 1.241414115796866 45.000000000000000
33.288756992729894 29.446789959785448 1.115013625462301 21.000000000000000
33.264701664799659 29.336709511963846 0.983270354385650 29.000000000000000
33.234580212011636 29.220677003453986 0.851971711471701 37.000000000000000
33.253644684806623 29.351453916920690 0.724743667834624 11.000000000000000
21.954288079761842 19.415274222610300 0.392166747319362 1.000000000000000
33.295044909888347 29.349221071353824 0.463658646048328 10.000000000000000
21.926065621802096 19.402331152146999 0.221082656307496 3.000000000000000
17.297916566031642 15.219097494069572 0.081058532481500 2.000000000000000
17.308497304696541 15.283605174911713 0.012171993413066 2.000000000000000
17.295003327803585 15.222889348676006 -0.053889999990322 2.000000000000000
17.302472662302343 15.284283707452559 -0.122233536626047 2.000000000000000
17.288735228017590 15.223753157063399 -0.187655678332828 2.000000000000000
17.286507433704404 15.277030074320550 -0.256306249331727 2.000000000000000
17.338081260552240 15.259633612023812 -0.322883551643715 2.000000000000000
17.350653379009920 15.326021868424121 -0.393482548753559 2.000000000000000
17.309086164559435 15.241014397859750 -0.457019103256937 2.000000000000000
17.315595734109678 15.301638174183296 -0.526344926908602 2.000000000000000
17.325263135034184 15.261283569599705 -0.591797529287982 2.000000000000000
17.282718180317499 15.279578726027019 -0.659441385382694 2.000000000000000
17.378824868524884 15.300692620398607 -0.729399254037165 3.000000000000000
17.305720680461061 15.292844295481167 -0.794438418427644 2.000000000000000
17.236063900007299 15.184183370654729 -0.853850829707249 6.000000000000000
16.773576099169325 14.839017734781351 -0.885231254212472 8.000000000000000
8.209683624108649 7.232296625532257 -0.445878802489978 1.000000000000000
15.544534724118240 13.729231525047219 -0.959597479312693 12.000000000000000
15.175332097209631 13.368268547039406 -0.983331192637595 9.000000000000000
14.803626639844843 13.095846028748888 -1.005190330917439 7.000000000000000
14.503634320619627 12.795203281723644 -1.030446878208110 12.000000000000000
