# This PCD file was generated using the MATLAB® pcwrite function
# from Computer Vision Toolbox®.
# .PCD v.7 - Point Cloud Data file format
VERSION .7
FIELDS x y z intensity
SIZE 8 8 8 8
TYPE F F F F
COUNT 1 1 1 1
WIDTH 641
HEIGHT 1
VIEWPOINT 0 0 0 1 0 0 0
POINTS 641
DATA ascii
9.702587353293936 -2.145742541815366 -0.539118845872151 23.000000000000000
4.349069150047411 -0.959675424605408 -0.249651463655816 4.000000000000000
9.732935911592216 -2.157479274430401 -0.601699296321173 21.000000000000000
4.329464463951134 -0.968101663492845 -0.315653073338599 0.000000000000000
4.276656163207878 -0.947551046749219 -0.399850314682565 0.000000000000000
4.313364775452034 -0.959600992160588 -0.488962254780696 1.000000000000000
4.200349338393393 -0.933645788524863 -0.543652036681128 5.000000000000000
4.165440184817972 -0.919579636119458 -0.613231223002678 5.000000000000000
3.997018649186177 -0.882641617011835 -0.973203135197708 1.000000000000000
4.103799695068679 -0.913851937570051 -1.547604089388496 3.000000000000000
6.040481576591568 -1.365207890590206 1.381866367921514 22.000000000000000
6.247244635885236 -1.403268655820675 1.062814943327031 5.000000000000000
6.615306864280339 -1.482793998508093 0.644718649999551 48.000000000000000
6.464696471188268 -1.455918422074753 0.401414552366270 16.000000000000000
9.786437296230032 -2.219891811309971 0.351526789559413 8.000000000000000
9.795699989581284 -2.205689897316759 0.321650686573124 5.000000000000000
9.752785576194889 -2.213326924923457 0.292512456748232 15.000000000000000
9.846394459729975 -2.223300960518024 0.260397316929206 2.000000000000000
9.785279801874099 -2.209171625481964 0.202232415170623 5.000000000000000
9.802176703753959 -2.221410161259087 0.170809207494075 4.000000000000000
9.749424530405276 -2.189574464988333 0.142777582847066 13.000000000000000
9.763669040291997 -2.213594616712257 0.112147155342493 10.000000000000000
9.776017261026787 -2.200603026441904 0.082086208443027 10.000000000000000
9.786250744916522 -2.223162034203938 0.051614155359912 5.000000000000000
9.767723360987514 -2.201392476752751 0.022805464681047 12.000000000000000
9.791806010660864 -2.215611004329439 -0.009106770407526 9.000000000000000
9.773130532354401 -2.193538858485560 -0.038158812916645 7.000000000000000
9.775335710423231 -2.214151634934701 -0.068353123324190 15.000000000000000
9.829414241571293 -2.213015017464734 -0.101212322166663 2.000000000000000
9.747004408251014 -2.209094146675810 -0.125765856312454 10.000000000000000
9.785543852683825 -2.203815841982092 -0.158308913477101 10.000000000000000
9.782222189689300 -2.210045538484742 -0.188993519731792 6.000000000000000
9.778406048441877 -2.192588546827508 -0.218548232805593 10.000000000000000
9.776271102201756 -2.211628881383461 -0.248428393061464 8.000000000000000
9.779902468167933 -2.196313671407097 -0.278359019746092 10.000000000000000
9.769966347167585 -2.213118179038048 -0.307265044363388 12.000000000000000
9.769598286963605 -2.196500826556857 -0.337190173088755 13.000000000000000
9.827102290139118 -2.220402371240162 -0.373107398576656 40.000000000000000
4.421924021100579 -1.004022527646434 -0.179474581262178 2.000000000000000
9.797161059580951 -2.214883817188820 -0.430360255245153 57.000000000000000
9.758131759807707 -2.187335211670707 -0.456360498406380 28.000000000000000
9.713303311337151 -2.194169783532416 -0.481260268272125 15.000000000000000
9.700899330717856 -2.174251511271763 -0.509906338038236 23.000000000000000
9.704356226496792 -2.182393729048215 -0.540898922191477 22.000000000000000
4.350977594708901 -0.977047304448099 -0.251191366997628 4.000000000000000
9.730869520762036 -2.193124581483630 -0.603112969519350 21.000000000000000
4.320218819364548 -0.981360518406390 -0.315189125856690 0.000000000000000
4.274859905317305 -0.963322336855569 -0.400873267715733 0.000000000000000
4.282140423544467 -0.964762733636142 -0.483247266241143 0.000000000000000
4.191256278790073 -0.946456443795853 -0.542969562714666 7.000000000000000
4.174597263349558 -0.938984643429578 -0.617390817671487 5.000000000000000
4.005879815981203 -0.901389773234357 -0.978681001179684 1.000000000000000
6.202338017088050 -1.412307492572062 1.059109204076663 26.000000000000000
6.600366715038216 -1.502950999406472 0.644195206379110 41.000000000000000
6.449842491287129 -1.475533024063019 0.401182708933625 21.000000000000000
9.770757126680703 -2.244246984359300 0.381889358093706 10.000000000000000
9.803394584752722 -2.261394795818489 0.350547561950861 6.000000000000000
9.785849211579810 -2.239378850073265 0.321107384501850 12.000000000000000
9.763523774003179 -2.236073560246254 0.261705206954945 7.000000000000000
9.836953567055323 -2.260535493224971 0.199754532537206 2.000000000000000
9.784568125621298 -2.252879833500039 0.170531022432031 4.000000000000000
9.754979380884411 -2.227547190144087 0.141657644073629 16.000000000000000
9.807527780650780 -2.262797404001766 0.109413526221843 2.000000000000000
9.754689489692675 -2.230895377324565 0.082049658625521 14.000000000000000
9.769463003588667 -2.238301511157061 0.021689601350213 9.000000000000000
9.751201299152410 -2.240341478783996 -0.008021632297054 12.000000000000000
9.770976894568529 -2.229364615262725 -0.039131753525190 10.000000000000000
9.773121833572029 -2.249997888211524 -0.069349276526888 11.000000000000000
9.769677501437787 -2.232433885705234 -0.098652007082036 9.000000000000000
9.760177808383274 -2.249277074299030 -0.127807927788929 11.000000000000000
9.787255597324322 -2.240776765755626 -0.159637251138510 5.000000000000000
9.779972742576147 -2.245913720989776 -0.190084579155338 12.000000000000000
9.764740038592658 -2.225105659680693 -0.218804652980139 12.000000000000000
9.808524735969321 -2.257482131741220 -0.252242855954014 4.000000000000000
9.770089157611711 -2.229947308504059 -0.278900808766363 8.000000000000000
9.794578555048593 -2.256693983013839 -0.310692456361759 7.000000000000000
9.809623644507566 -2.244403399113175 -0.342054362964816 8.000000000000000
9.824796883498840 -2.256425072530952 -0.374341207601124 43.000000000000000
4.416258027506253 -1.018954975911463 -0.179721446579448 2.000000000000000
9.802557169445784 -2.253013554160951 -0.432373616325114 51.000000000000000
9.767474335710492 -2.226394577968271 -0.458797835874633 27.000000000000000
9.707328413647470 -2.228674464692268 -0.482188794244648 15.000000000000000
9.695013672119156 -2.208702557709820 -0.510845737597801 23.000000000000000
9.709804696501692 -2.220197907325748 -0.543094050704844 23.000000000000000
4.356521421910713 -0.995803572578389 -0.253380696967707 5.000000000000000
9.728669060831162 -2.228796247698554 -0.604526952479053 22.000000000000000
4.296160326947886 -0.989104031257817 -0.311901217814015 0.000000000000000
4.280359660569826 -0.981823763972116 -0.403465387733118 0.000000000000000
4.302257911454310 -0.988688296005606 -0.489443522983244 1.000000000000000
4.189416907280436 -0.961946412589597 -0.544120707090005 11.000000000000000
4.172765625444826 -0.954407026390271 -0.618605973088188 4.000000000000000
3.996991250588420 -0.913530523145560 -0.977590951676050 1.000000000000000
4.159418205166146 -0.950441480359103 -1.578466110076675 3.000000000000000
6.168804993183121 -1.424779256018304 1.056414808515926 32.000000000000000
6.589167688635194 -1.524265909098929 0.643750538778163 32.000000000000000
6.453937259972750 -1.501268632772899 0.400631125208101 24.000000000000000
9.762648076850523 -2.286036311304464 0.350503468208133 9.000000000000000
9.802741602845876 -2.280917740255674 0.320045053666527 7.000000000000000
9.781320989379120 -2.258045890605494 0.291113963692318 12.000000000000000
9.749760859908175 -2.268525231667383 0.261261906135754 11.000000000000000
9.754055619289565 -2.273080582246436 0.201513519154323 8.000000000000000
9.763021574278817 -2.283130419886525 0.170387454044637 9.000000000000000
9.779564310701181 -2.271214818493362 0.139811154253291 11.000000000000000
9.789814280400821 -2.294267056322127 0.109183286018239 3.000000000000000
9.767787725294825 -2.271171162408251 0.080498031833425 15.000000000000000
9.826268143539467 -2.271290580941503 0.048732179249479 2.000000000000000
9.767225714074096 -2.274134931248959 0.020765002658636 14.000000000000000
9.768010230272722 -2.281791346006919 -0.009989447450585 17.000000000000000
9.799353396463811 -2.274195212101816 -0.041830624566303 4.000000000000000
9.766942888148110 -2.284731456172004 -0.070118632693804 12.000000000000000
9.755913214514097 -2.264910697224160 -0.098954327160045 10.000000000000000
9.754032728147024 -2.283966598551203 -0.128599232747821 15.000000000000000
9.781160798072840 -2.275552977365365 -0.160441474623199 7.000000000000000
9.796725726396415 -2.287448829511582 -0.192547544829435 5.000000000000000
9.758620569542588 -2.259807976113976 -0.219632348992348 16.000000000000000
9.790824517817523 -2.288962305397696 -0.252191290805620 7.000000000000000
9.752501003402788 -2.261307718857950 -0.278823289402552 13.000000000000000
9.776916159102607 -2.288133836134925 -0.310593181914310 7.000000000000000
9.776710227426783 -2.271457417917574 -0.340600601378468 11.000000000000000
9.818534205954959 -2.291335036426752 -0.375231047946922 45.000000000000000
9.814387366530751 -2.273311473713832 -0.404820320941865 56.000000000000000
9.796338170829555 -2.287846344731129 -0.433284871132677 51.000000000000000
9.757545289002424 -2.259980334035390 -0.459339077260550 24.000000000000000
9.705047440182950 -2.264291772416826 -0.483508211089703 17.000000000000000
9.696644746187491 -2.245371247126592 -0.512590812406350 23.000000000000000
9.707470107294025 -2.255829458002417 -0.544461806845433 22.000000000000000
4.354579831699714 -1.011880514729889 -0.254273036195181 5.000000000000000
9.730149543107057 -2.265605925509618 -0.606378821117430 21.000000000000000
4.285778772173449 -1.000380512442788 -0.406058437757142 0.000000000000000
4.296625402584987 -1.003204204520109 -0.489683757304992 1.000000000000000
4.194803147072543 -0.980180444128735 -0.547106893375359 13.000000000000000
4.167244755281574 -0.968462260535546 -0.618839102901617 4.000000000000000
3.991591174507268 -0.926979411691626 -0.977814326537974 1.000000000000000
4.083979349626717 -0.953955238082123 -1.546588795604369 2.000000000000000
6.169310538707068 -1.448321991859594 1.056742638927954 34.000000000000000
6.562692390277736 -1.540552147335227 0.642997763975033 30.000000000000000
6.457927478576703 -1.527059154575937 0.400078546135638 28.000000000000000
6.493106574152961 -1.534414373964786 0.339338216490962 25.000000000000000
9.763990754061002 -2.323043838589534 0.349772922694027 14.000000000000000
9.834793384113880 -2.327165697338010 0.318682152535762 1.000000000000000
9.767466782252221 -2.290551126511538 0.290657458606312 9.000000000000000
9.789560175658675 -2.316830150835798 0.259447665225519 3.000000000000000
9.733531472312718 -2.283560674195037 0.231858344717901 14.000000000000000
9.770871528837901 -2.314559436159811 0.200123286926654 9.000000000000000
9.783509159040436 -2.325866945256784 0.168777882900298 5.000000000000000
9.769470841503319 -2.304848640303284 0.139268267644157 10.000000000000000
9.773055943263229 -2.309302997123119 0.079281744869468 9.000000000000000
9.762553455832492 -2.289306024193898 0.050710773888263 9.000000000000000
9.761021509189113 -2.308855771545559 0.020031918232363 14.000000000000000
9.780817880008630 -2.322238626551190 -0.011756006193643 13.000000000000000
9.808386393561680 -2.313572721297270 -0.043453914082678 3.000000000000000
9.756809275174056 -2.318319311512553 -0.070660419280889 18.000000000000000
9.787981823501477 -2.310924385329372 -0.102127054182098 4.000000000000000
9.755414127376598 -2.320926010787922 -0.129892084156106 13.000000000000000
9.778766871125457 -2.311449225904767 -0.161508358140435 14.000000000000000
9.805656986261670 -2.326842740508148 -0.194464261329335 3.000000000000000
9.775326076750728 -2.301300717296471 -0.222178083246991 10.000000000000000
9.769198371665457 -2.319211889871454 -0.251840635594820 13.000000000000000
9.765404367298780 -2.301624944145836 -0.281221941440744 13.000000000000000
9.770616554745972 -2.322893443474001 -0.311455993976812 15.000000000000000
9.770488350212977 -2.306203967646582 -0.341474847540609 14.000000000000000
9.827417694846821 -2.330794502578364 -0.377499631318120 50.000000000000000
9.819539038956213 -2.311586780215194 -0.406790691026729 54.000000000000000
4.455071204466554 -1.050371639600371 -0.186928152802056 2.000000000000000
9.755134265810216 -2.295791141160642 -0.460639532820956 22.000000000000000
9.695000687497000 -2.297662598786211 -0.484045886040256 17.000000000000000
9.690498678015400 -2.279837636287944 -0.513530581133416 23.000000000000000
9.705000827696081 -2.291475630878011 -0.545830011264558 22.000000000000000
4.352575471361404 -1.027961709855148 -0.255165408857838 7.000000000000000
9.727676367568439 -2.301329495502650 -0.607793898942961 21.000000000000000
4.323725535890218 -1.016012727575806 -0.318495300254540 0.000000000000000
4.280108486593506 -1.014831504223473 -0.406297923203865 0.000000000000000
4.269000899777248 -1.009413085708196 -0.484815146235295 0.000000000000000
4.189194840134793 -0.994320791028052 -0.547341177125420 14.000000000000000
4.176167820353101 -0.988026897668817 -0.623001344190253 4.000000000000000
4.003758162170734 -0.947227797923780 -0.984608598447722 1.000000000000000
4.048004147516785 -0.955998381698414 -1.531495595040710 3.000000000000000
6.169724193949501 -1.471890902398926 1.057069576852079 35.000000000000000
6.539977402797724 -1.557933837466983 0.642324403428130 27.000000000000000
6.465606524413088 -1.554166659469963 0.399460131343367 31.000000000000000
6.565697118753248 -1.585494830534259 0.275277308980958 14.000000000000000
9.770900411507352 -2.344845801344391 0.319181263569766 5.000000000000000
9.749669211483205 -2.321852401114207 0.290288076651755 12.000000000000000
9.844455606100379 -2.370051039774474 0.257235811891831 1.000000000000000
9.750278152519035 -2.325029965391238 0.230551382775961 15.000000000000000
9.783682672883293 -2.355043846914725 0.198852156325707 4.000000000000000
9.743947201186744 -2.333837645385771 0.139308022878775 16.000000000000000
9.764337522681267 -2.323360798902819 0.109268286463866 10.000000000000000
9.766690535626337 -2.344056684498362 0.078570669347626 9.000000000000000
9.760105976730935 -2.325163499272136 0.049809153323459 10.000000000000000
9.785312180511454 -2.352727849066177 0.017759882586449 8.000000000000000
9.770517439381045 -2.355874115063415 -0.012299318036589 11.000000000000000
9.775182201210789 -2.340408892163239 -0.042701609274924 10.000000000000000
9.765672359571136 -2.357639942988186 -0.072340836950720 12.000000000000000
9.781597255083073 -2.345729779009055 -0.102909234981930 5.000000000000000
9.764765608407785 -2.343933656855555 -0.161787115063524 11.000000000000000
9.764773820402329 -2.351318614756053 -0.192811137223999 10.000000000000000
9.776571584264426 -2.338357275392113 -0.223580314441303 7.000000000000000
9.789483311700375 -2.362025290722435 -0.254767820926167 8.000000000000000
9.781961115258891 -2.343213210614820 -0.283932479629187 5.000000000000000
9.771825781896105 -2.359937025519102 -0.312961533746896 13.000000000000000
9.798513883842608 -2.351207109174112 -0.345348195613177 9.000000000000000
9.824698227579628 -2.366894167113479 -0.378735200251840 52.000000000000000
9.813090979883802 -2.346498546918518 -0.407692452979675 57.000000000000000
9.798772385119310 -2.362083255548427 -0.436580326169461 39.000000000000000
9.760219146652453 -2.333896688593853 -0.462700343383944 18.000000000000000
9.703896214889824 -2.336727803831884 -0.486539637595918 18.000000000000000
9.699480772271736 -2.318845448260291 -0.516083408679911 23.000000000000000
9.713823983120092 -2.330591352462072 -0.548443034874562 22.000000000000000
4.350508543901123 -1.044043322088548 -0.256058099659839 11.000000000000000
9.728875842695748 -2.338216727667259 -0.609647370538875 22.000000000000000
4.336419113799240 -1.037558360157938 -0.322267991002172 0.000000000000000
4.278050048681035 -1.030668216511991 -0.407322193348355 0.000000000000000
4.266945213790571 -1.025204597012788 -0.485905294012390 1.000000000000000
4.187168219257541 -1.009839220045940 -0.548493071594893 13.000000000000000
4.166906824326911 -1.000709733191293 -0.622252147535014 4.000000000000000
3.998236626877796 -0.960697558347441 -0.984832617969271 1.000000000000000
4.032302223879119 -0.965685052403444 -1.526614190664664 2.000000000000000
6.204018967657082 -1.507006508469900 1.060411213073517 28.000000000000000
6.532387123065635 -1.580262759549107 0.641960219875732 31.000000000000000
6.492115134792245 -1.587761455766277 0.398516386846635 27.000000000000000
6.535263394716784 -1.600235072106813 0.275724687130840 25.000000000000000
9.769017058205236 -2.361266620345305 0.348978678535705 8.000000000000000
9.768207673424316 -2.380780751150276 0.318489086564762 11.000000000000000
9.754735534087894 -2.360009859502355 0.289401395192546 17.000000000000000
9.749889736052063 -2.378312888838337 0.258854577443785 10.000000000000000
9.740055345001132 -2.358555309156920 0.230010857773695 10.000000000000000
9.781022745513937 -2.391009090982443 0.198066316266113 4.000000000000000
9.849724283083168 -2.382702695649840 0.165561790382896 1.000000000000000
9.760399482098720 -2.375497611218726 0.137747025215919 17.000000000000000
9.773206918033607 -2.362720835183381 0.107940255392424 8.000000000000000
9.764021436271504 -2.379967188013218 0.077690731653304 15.000000000000000
9.803432978625818 -2.374875885465087 0.046739324727737 3.000000000000000
9.759704155448068 -2.381742032160183 0.017988033394739 7.000000000000000
9.763917259191359 -2.390644307520702 -0.013046577299348 15.000000000000000
9.768655736296960 -2.375184692787748 -0.043460785369667 10.000000000000000
9.767444485605221 -2.378206731080525 -0.103212029319420 14.000000000000000
9.760475423152819 -2.359075208198817 -0.131436935936402 8.000000000000000
9.769754150020841 -2.382136304428414 -0.163380625819394 9.000000000000000
9.773438661431729 -2.390738421417275 -0.194728439862047 14.000000000000000
9.777673789209395 -2.375457922518322 -0.224983336464729 10.000000000000000
9.779067018032267 -2.395686523777698 -0.255311136975051 7.000000000000000
9.775444314705197 -2.378011278648025 -0.284785119236261 5.000000000000000
9.822524348104698 -2.395288872052404 -0.348891959460697 6.000000000000000
9.821842633974855 -2.403012073147622 -0.379971289968459 50.000000000000000
9.806515027637904 -2.381402892607348 -0.408594108404664 60.000000000000000
4.519658262479244 -1.091795105287886 -0.198201122262481 4.000000000000000
9.742287488707820 -2.365151144922017 -0.462481136084472 18.000000000000000
9.693592621843436 -2.370091357029878 -0.487077602680477 17.000000000000000
9.704495817718323 -2.356796191864561 -0.518234473797139 22.000000000000000
9.714878988867742 -2.367478968655611 -0.550227596432640 23.000000000000000
4.341004637837663 -1.057318609693901 -0.255651499887501 11.000000000000000
9.729933157267388 -2.375144379827773 -0.611501798766900 22.000000000000000
4.337977248736572 -1.055000654859462 -0.323923146281377 0.000000000000000
4.272270403705920 -1.045099602527692 -0.407561286327379 0.000000000000000
4.272120978194014 -1.043813234532003 -0.488699320844087 0.000000000000000
4.185080970862916 -1.025366164225296 -0.549645192345371 13.000000000000000
4.164832818647686 -1.016154572273891 -0.623467989234575 4.000000000000000
3.996179260721330 -0.975540871107732 -0.986370771419053 1.000000000000000
4.013211080048585 -0.973956393961750 -1.520028657191070 1.000000000000000
6.211747440835326 -1.533331647480708 1.061404946807707 17.000000000000000
6.532293954929213 -1.605127260569297 0.641749259339874 29.000000000000000
6.491973442163206 -1.612508338372720 0.398024456406507 29.000000000000000
6.519935642252928 -1.619960701293543 0.275631956720065 28.000000000000000
9.766246207786434 -2.397206662313430 0.348309644129692 9.000000000000000
9.807414552123658 -2.429708347910690 0.316970570081246 5.000000000000000
9.774944198523608 -2.402928171847570 0.288167115995055 12.000000000000000
9.773856204007117 -2.422430359761151 0.257426039058510 23.000000000000000
6.678524105942551 -1.646665183822002 0.145868940683510 8.000000000000000
6.655397800107596 -1.654189022760853 0.125595625489375 20.000000000000000
9.774249002555067 -2.396640573455713 0.167289826978421 6.000000000000000
9.769036301607406 -2.414950914756140 0.136475518884797 11.000000000000000
9.823956497316592 -2.415050253887301 0.104878643437329 2.000000000000000
9.780315090485949 -2.421771310252225 0.075963746293247 21.000000000000000
9.781558354132624 -2.405089161993907 0.046738225408580 4.000000000000000
6.644759802472543 -1.648994758505495 0.001931538420445 22.000000000000000
6.720705152701301 -1.649081805970468 -0.002889972147576 0.000000000000000
9.788720696056661 -2.418187016019871 -0.045735556294423 7.000000000000000
9.774374858079970 -2.397063588064078 -0.074022849732565 10.000000000000000
9.779896170592645 -2.418833166198169 -0.105193387177993 18.000000000000000
9.746293289889028 -2.391473098742203 -0.131726891379115 10.000000000000000
9.801302405255383 -2.428602619114791 -0.166818729198793 57.000000000000000
9.785754249764951 -2.431439988669069 -0.196922444136402 7.000000000000000
9.797697971100106 -2.418471542586332 -0.227822131820361 24.000000000000000
6.637579293482932 -1.650094750896699 -0.162804187310294 23.000000000000000
9.787861846601549 -2.418648450389348 -0.287189251000186 41.000000000000000
9.769077532594324 -2.395864245709312 -0.314146395116068 10.000000000000000
9.812040402778003 -2.429069768663560 -0.349436304248298 49.000000000000000
9.815043802169969 -2.437969358713062 -0.380862347771516 53.000000000000000
9.811235383699115 -2.419810216665105 -0.410567088928836 58.000000000000000
4.521081184329152 -1.109865178715374 -0.199614429493259 5.000000000000000
9.739480482001479 -2.400984008201071 -0.463782501285946 17.000000000000000
9.694582698541129 -2.406939316825415 -0.488790350880796 19.000000000000000
9.701748660376468 -2.392493043886368 -0.519579573727061 23.000000000000000
9.730992636462897 -2.409117069054297 -0.553673934490743 22.000000000000000
4.349867189570023 -1.077658353421995 -0.258493659826220 6.000000000000000
9.723248693558805 -2.409778300960987 -0.612480210222824 21.000000000000000
4.343135775978437 -1.073895422171084 -0.326285604369606 0.000000000000000
4.251721421003734 -1.052551210845479 -0.485529902757409 1.000000000000000
4.162698186036953 -1.031607923673391 -0.624683818814251 5.000000000000000
4.004589377875497 -0.994591948041162 -0.991853690443061 1.000000000000000
3.980653509218918 -0.976772580692035 -1.506629555709468 4.000000000000000
6.532102592445613 -1.630020675662756 0.641537931366500 33.000000000000000
6.487954591924340 -1.635978134383016 0.397597393050177 24.000000000000000
6.504547022475106 -1.639605643533535 0.275540320633149 30.000000000000000
9.812039869102827 -2.468208718871907 0.316124590965867 52.000000000000000
9.794968458502716 -2.446026638804121 0.286929717073738 48.000000000000000
9.793811370717902 -2.465564133685461 0.256093141392237 54.000000000000000
6.629007136697252 -1.655277335367025 0.147766254613617 24.000000000000000
6.602119184351482 -1.661370693175137 0.127845869297656 29.000000000000000
9.798055005605283 -2.440927045639278 0.165540141410504 26.000000000000000
9.792775641545534 -2.459265532458495 0.134617844464450 58.000000000000000
9.801918970752585 -2.445289475793459 0.104806246266864 53.000000000000000
9.800247950618454 -2.464911972334242 0.074064222619033 56.000000000000000
6.664062974471185 -1.665298848051130 0.021040999424482 17.000000000000000
6.610411528037968 -1.662634777079056 0.003583326865694 32.000000000000000
9.776266146697878 -2.431323349166760 -0.014817111707428 25.000000000000000
9.804787715061222 -2.460175569408875 -0.047796575331819 55.000000000000000
9.794362673860753 -2.440126881034722 -0.076391124359466 48.000000000000000
9.799804635842143 -2.461953181804887 -0.107657118250517 51.000000000000000
9.773957032823795 -2.436769467974358 -0.134781830186557 33.000000000000000
6.659266954701986 -1.661998785287473 -0.103114366720174 22.000000000000000
6.616636595550976 -1.662838995276971 -0.120723500669336 27.000000000000000
9.813728316518786 -2.460471255379915 -0.230376609878612 61.000000000000000
9.806637455002203 -2.441107681076772 -0.258839680237266 45.000000000000000
9.800110469981320 -2.459410405532907 -0.289595532196282 48.000000000000000
9.792862434806008 -2.440036044268595 -0.317584095273928 51.000000000000000
6.659950429876907 -1.660292170741783 -0.227812589134113 6.000000000000000
6.609503371298228 -1.658467978747602 -0.243864917585502 26.000000000000000
9.827129812410750 -2.478875330908622 -0.383481103603709 59.000000000000000
4.529822621274349 -1.130800035701235 -0.202189653108501 5.000000000000000
9.732735631655377 -2.435652906182277 -0.464703599172844 15.000000000000000
9.695430321627709 -2.443827642615439 -0.490503936419257 20.000000000000000
9.695066063010373 -2.427026075320420 -0.520521282204339 22.000000000000000
9.727948392045791 -2.444954791750853 -0.555045712716175 22.000000000000000
9.723687486614480 -2.426795107104574 -0.584369877054350 21.000000000000000
9.724028015464365 -2.446764662928686 -0.614335758358054 21.000000000000000
4.322535693041962 -1.082829487592079 -0.323700979978307 1.000000000000000
9.731095245480168 -2.446231380898290 -0.795897354170863 27.000000000000000
4.284711154788302 -1.066628045833426 -0.411727696017250 0.000000000000000
4.260406022706050 -1.072609340123371 -0.489176846751465 0.000000000000000
4.186556331404987 -1.042318163546817 -0.551715508639732 12.000000000000000
4.160502660142649 -1.047065867397592 -0.625899920828563 5.000000000000000
3.949163156349096 -0.995374494669534 -1.496854875764198 0.000000000000000
6.370001730329175 -1.611980890810827 1.075780440290157 26.000000000000000
6.531813943242133 -1.654939292309209 0.641326189427875 31.000000000000000
6.453645441204388 -1.648880881675055 0.397693790684248 41.000000000000000
6.500418489399486 -1.663126430525843 0.275041650609397 35.000000000000000
9.793634360642356 -2.499540865644477 0.315730366495217 54.000000000000000
9.799545780945326 -2.484503475791151 0.286037556898873 40.000000000000000
9.771634012911274 -2.495633170382696 0.255846429365964 48.000000000000000
6.587059860582583 -1.666185341668523 0.149255573530048 27.000000000000000
6.582830879745927 -1.679986416336973 0.128133987816315 29.000000000000000
9.806412258681567 -2.480620240342212 0.164323925121827 57.000000000000000
9.785828058317112 -2.494151040960212 0.133927416772263 51.000000000000000
9.814108829157282 -2.486176860286783 0.103314697785361 47.000000000000000
9.778069132308882 -2.495009129642852 0.074029581120964 51.000000000000000
6.625879710255608 -1.677648372270987 0.022885908497787 28.000000000000000
6.576046100730502 -1.676062386594836 0.005238583934940 33.000000000000000
9.799878264286571 -2.475722484800556 -0.017204224164770 53.000000000000000
9.790207962528319 -2.492688699682041 -0.048124474345564 59.000000000000000
9.798921554922785 -2.478588030063371 -0.077848758798299 37.000000000000000
9.777635990398490 -2.492053419929753 -0.107480135798426 42.000000000000000
9.778558361889623 -2.475146335397092 -0.136330703486224 58.000000000000000
6.628662639266471 -1.676952481246232 -0.101402336917151 29.000000000000000
9.813130123962862 -2.477044336695101 -0.200220139951286 51.000000000000000
9.764899125045115 -2.482216191883417 -0.228048059156663 60.000000000000000
9.803553997380419 -2.477214590636883 -0.259981874177253 41.000000000000000
9.762738810857016 -2.484729101235402 -0.287964467029468 39.000000000000000
9.797425399478602 -2.478467664506645 -0.319415244844212 52.000000000000000
6.580002332335133 -1.683510180535151 -0.221460439430574 29.000000000000000
9.789668831568298 -2.504229277256087 -0.381607504730365 51.000000000000000
6.604285724243483 -1.671957234849302 -0.263817191397255 27.000000000000000
4.534777193340410 -1.150390106006320 -0.204185301666628 5.000000000000000
9.725863971479178 -2.470310703598507 -0.465624756316079 13.000000000000000
9.692339016805647 -2.479559423487942 -0.491826195371224 20.000000000000000
9.703445098003586 -2.466317312531686 -0.523079021852264 22.000000000000000
9.724769046550684 -2.480807063035563 -0.556417939089205 22.000000000000000
9.716798598302329 -2.461423262394931 -0.585337602182214 21.000000000000000
9.736034843154645 -2.487395868712575 -0.617508505078774 19.000000000000000
4.331226271761406 -1.103187735359754 -0.326770918459035 1.000000000000000
9.727916647211297 -2.482082195358409 -0.797454268653999 25.000000000000000
4.282451837612825 -1.082517909136854 -0.412752984244525 0.000000000000000
4.250838477249655 -1.085537336075561 -0.488562622233646 0.000000000000000
4.191578712560001 -1.060738942632483 -0.554704771853653 12.000000000000000
4.161845627779714 -1.063972481413785 -0.628099447325670 6.000000000000000
4.009407420320762 -1.012304688414652 -0.996022813989238 2.000000000000000
9.817177808180048 -2.524260773330788 2.474322623845983 0.000000000000000
6.535301863535618 -1.694396439132717 1.090806591880227 36.000000000000000
6.523878698085547 -1.677237393997189 0.640961770561412 29.000000000000000
6.453257948472052 -1.673572073151618 0.397202515098522 40.000000000000000
6.458508740775448 -1.673327997416933 0.275906328844858 25.000000000000000
6.458896533489288 -1.669415231407029 0.215596544809419 25.000000000000000
6.470359903671192 -1.663578597929231 0.195562598699889 23.000000000000000
9.750614651488494 -2.506088232302034 0.286365754850003 20.000000000000000
9.734126292983012 -2.520717107201541 0.255998511184088 19.000000000000000
6.461738668459531 -1.672567760085755 0.154523112963550 25.000000000000000
6.514492737518670 -1.681314714577859 0.131268662547262 19.000000000000000
9.787943373694960 -2.511916313446463 0.164047690360565 58.000000000000000
9.755910238976689 -2.521711117480322 0.134115904333548 31.000000000000000
9.761370415214072 -2.506615048779842 0.104508386816643 31.000000000000000
9.721532414557389 -2.514049641004846 0.075526371474094 21.000000000000000
6.598992029133357 -1.693699276275559 0.023902682184959 34.000000000000000
6.526604585192484 -1.683998440009283 0.008054208677365 18.000000000000000
9.766194382757458 -2.502155693818018 -0.016518853453478 54.000000000000000
9.764102926589731 -2.521492462006613 -0.047800092428805 39.000000000000000
9.753844978878274 -2.501410976591799 -0.076335357471992 29.000000000000000
9.732548691714236 -2.514760703961464 -0.105858169069919 17.000000000000000
6.537311211898992 -1.695698232733356 -0.095188783556136 19.000000000000000
6.594269860131329 -1.690405034592629 -0.099340061946850 28.000000000000000
9.787059819461643 -2.505956096506623 -0.199663510029009 59.000000000000000
9.735037261284349 -2.509727168754132 -0.227152854540852 24.000000000000000
9.758508769764767 -2.500077957983272 -0.257835496168353 30.000000000000000
9.725306962607702 -2.509823800429089 -0.286330084956691 18.000000000000000
9.756218816048092 -2.502539793230611 -0.317381426466037 32.000000000000000
6.534395744852803 -1.692760803968341 -0.217652142762065 21.000000000000000
9.748354525812797 -2.528140229679998 -0.379384476527616 24.000000000000000
9.752366669264260 -2.512436773423012 -0.409696804675044 21.000000000000000
9.756350805987298 -2.496646868719608 -0.438753059471818 27.000000000000000
4.543332367809018 -1.171477646368061 -0.206763014477558 5.000000000000000
9.700285550660816 -2.502087550561029 -0.524425809261893 21.000000000000000
9.725241846153541 -2.517896561159077 -0.558206291031428 22.000000000000000
4.346562328870413 -1.127480647403459 -0.261824429515619 5.000000000000000
9.740299916641538 -2.525721722180521 -0.619805373750158 21.000000000000000
4.317876288490486 -1.114892155480241 -0.325598811810680 6.000000000000000
9.728381980346901 -2.519154409556975 -0.799520109859183 24.000000000000000
4.287419140217407 -1.101311544616969 -0.415350323513659 0.000000000000000
4.255736615602428 -1.104243515875041 -0.491358498711181 1.000000000000000
4.182065882962949 -1.073423956551530 -0.554020738745227 12.000000000000000
4.155929399325378 -1.077995608835295 -0.628332346308512 7.000000000000000
4.003651231148768 -1.025794409431164 -0.996247330090287 5.000000000000000
6.576179471966803 -1.720874440384634 0.641809566271599 12.000000000000000
6.437709231315167 -1.692903203794742 0.396974242213572 35.000000000000000
6.439191753369275 -1.691333036955641 0.275955709640215 33.000000000000000
6.428337784274087 -1.683452030610063 0.216268073754644 28.000000000000000
6.451133120824677 -1.681683334466676 0.195752432609689 28.000000000000000
6.424455042888579 -1.687570377412044 0.176438989794091 37.000000000000000
6.431138652073283 -1.686563544766834 0.155405746913300 35.000000000000000
9.721423175677684 -2.536655454256561 0.226316179496112 20.000000000000000
6.453752885435154 -1.684859010172218 0.133972383004203 28.000000000000000
9.742736302291771 -2.534544172875002 0.164715377880374 24.000000000000000
9.729718785667240 -2.550332317936537 0.134160542060249 26.000000000000000
9.712410574871118 -2.527949423205392 0.105548976609842 23.000000000000000
9.710613415611272 -2.547477327339728 0.074986392100895 22.000000000000000
6.473702862680455 -1.699856662241842 0.031219678837555 23.000000000000000
6.458382623841429 -1.684957592353697 0.012322011181773 29.000000000000000
9.724837073662286 -2.525948820044739 -0.015419802635230 23.000000000000000
9.737913238763069 -2.550149247470273 -0.047473441210362 27.000000000000000
9.720131473158723 -2.527623905122127 -0.075504234956459 20.000000000000000
9.714018094190896 -2.545771726340732 -0.105917338246933 22.000000000000000
6.484147333569638 -1.701958746081701 -0.091379590771705 27.000000000000000
6.491043943325246 -1.694630183187655 -0.112118734006737 26.000000000000000
9.745709447961625 -2.529836520373330 -0.198001559565850 33.000000000000000
9.716488564110239 -2.540745417836945 -0.227118545210896 23.000000000000000
9.728612856932600 -2.527539473262593 -0.256881665852078 21.000000000000000
9.714383949460998 -2.543262395821088 -0.286870162736065 22.000000000000000
6.470064793692460 -1.695044401792472 -0.211750890842744 21.000000000000000
6.480354010086841 -1.688949632501249 -0.232942639645983 20.000000000000000
6.460144462309254 -1.696923879349299 -0.250812164928448 24.000000000000000
9.726226229180227 -2.541072167841492 -0.408807343246032 23.000000000000000
9.730276759802789 -2.525328482779365 -0.437818145261914 20.000000000000000
4.559155210772998 -1.195548781068467 -0.210504558411606 5.000000000000000
9.730688696866592 -2.545702571946677 -0.469373083242486 23.000000000000000
9.719722745120617 -2.545178068339268 -0.528199895217694 24.000000000000000
9.721787024656489 -2.553792488102509 -0.559579465465866 23.000000000000000
9.729134621346043 -2.539191484168242 -0.590267737996592 21.000000000000000
9.736847581934622 -2.561665179808415 -0.621225078329627 21.000000000000000
4.315452696497061 -1.130933793143960 -0.326547850926452 4.000000000000000
9.732477358862591 -2.557492048808015 -0.802095272103205 24.000000000000000
4.281385517296984 -1.115778809527875 -0.415590152521600 0.000000000000000
4.183337875160042 -1.090440290778822 -0.556092291215327 12.000000000000000
4.001338725038464 -1.040704407694918 -0.997786922096450 7.000000000000000
9.997154380658451 -2.657391063366020 2.513671566415360 3.000000000000000
6.557342529343920 -1.727367225215758 1.093115791073249 27.000000000000000
6.443762448796459 -1.698827274544286 0.638950591171437 20.000000000000000
6.418339699702181 -1.710792906562126 0.396813267343145 36.000000000000000
6.438623457565146 -1.716024581239630 0.275322774563819 34.000000000000000
6.401519313923733 -1.698649654892741 0.216770441869200 30.000000000000000
6.416797038280976 -1.694322941753775 0.196678376133024 36.000000000000000
6.420230818454715 -1.710834390464917 0.175885750466720 32.000000000000000
6.411789079005215 -1.704439949013420 0.155668980880202 39.000000000000000
6.426900562853795 -1.700144565154609 0.134708835722082 39.000000000000000
9.727893574458051 -2.566805733590542 0.164308227728393 23.000000000000000
9.718637263404149 -2.583789028511767 0.133619162468675 24.000000000000000
9.716628790159703 -2.566291740378276 0.104375215929266 23.000000000000000
9.718569303082393 -2.587065873267690 0.073594662839777 21.000000000000000
6.446803550439678 -1.715180571086982 0.032247835349480 37.000000000000000
6.427788332509389 -1.698925019807000 0.013700001713482 37.000000000000000
9.729008466426254 -2.564335473278938 -0.016782952946804 23.000000000000000
9.719230576913189 -2.581149103415392 -0.047579937967306 24.000000000000000
9.720531750282186 -2.564747725792742 -0.076731673910848 22.000000000000000
9.710567736260654 -2.581644726694613 -0.106939103708879 21.000000000000000
6.461007773074936 -1.718685148894686 -0.090349304159975 36.000000000000000
6.467940807052041 -1.711412917049977 -0.111041369699240 30.000000000000000
9.719485983324313 -2.558406827648170 -0.197439805280477 27.000000000000000
9.720590645403670 -2.579112097066862 -0.228811163226359 23.000000000000000
9.728991209310212 -2.564685237569527 -0.258320758942952 22.000000000000000
9.710924472710706 -2.579131628259937 -0.288032747364595 21.000000000000000
6.435737883051516 -1.707692509964041 -0.209186334379463 26.000000000000000
6.438566804014939 -1.699008707821520 -0.229436658253340 23.000000000000000
9.748674686724282 -2.565358708424355 -0.380965263104299 23.000000000000000
9.737870298244626 -2.581938565820856 -0.411497135317813 22.000000000000000
4.563832408262884 -1.215356611264482 -0.212503960921559 5.000000000000000
9.723414688683345 -2.580385162909771 -0.470295340160367 21.000000000000000
9.719835732892037 -2.562106811568547 -0.498004925403746 24.000000000000000
9.720051322426359 -2.582287795523946 -0.529953435764014 24.000000000000000
9.721975994541557 -2.590943530913286 -0.561369366018106 23.000000000000000
4.347768087028969 -1.145102590284964 -0.263369040547431 5.000000000000000
4.312965395368601 -1.146979516950488 -0.327497042378570 26.000000000000000
9.732649811832060 -2.594659071172288 -0.804162958090893 25.000000000000000
4.282567434346490 -1.133171120751378 -0.417402466811973 1.000000000000000
4.253308327719727 -1.120065149405285 -0.492449517345535 2.000000000000000
4.188140095458261 -1.108965036879972 -0.559083468634565 11.000000000000000
4.149962418682800 -1.092001886192399 -0.628565083186134 8.000000000000000
4.005944993178034 -1.058514866393551 -1.001957935797942 7.000000000000000
6.582981218676392 -1.761866358315835 1.095755796376254 17.000000000000000
6.424387976903598 -1.716732973572853 0.638364925873387 33.000000000000000
6.413945989781150 -1.734067584697776 0.396388612051235 36.000000000000000
6.415427340264155 -1.732510962526142 0.275511398241958 39.000000000000000
6.393457646378728 -1.720490918023813 0.216413519869240 36.000000000000000
6.412527723240714 -1.717570972033158 0.196137217159650 35.000000000000000
6.408403538033994 -1.731385942057884 0.175723933870591 37.000000000000000
6.418658036371890 -1.731793011769945 0.154480616964478 41.000000000000000
6.415037179918129 -1.720716494960826 0.134569764005901 43.000000000000000
9.728126560548983 -2.604012369994372 0.163361516121569 22.000000000000000
9.711232183089693 -2.618460729238976 0.132931361350169 21.000000000000000
9.709304840122156 -2.600950991990970 0.103676098826669 23.000000000000000
9.714980013543924 -2.622993625549547 0.072713377307357 16.000000000000000
6.423621894315820 -1.731712952136526 0.033000397258855 47.000000000000000
6.412177052136778 -1.718142479074842 0.013921409251012 46.000000000000000
9.721644788292338 -2.599038583445086 -0.017530090104069 25.000000000000000
9.723196455384032 -2.619588668281473 -0.048991904299696 25.000000000000000
9.713200385797043 -2.599418150083771 -0.077501455054103 21.000000000000000
9.710773282010546 -2.618788349715587 -0.108202427806908 22.000000000000000
6.449059830907060 -1.739368257081402 -0.090361781686443 40.000000000000000
6.437304512350852 -1.725355973983618 -0.109241892187811 37.000000000000000
9.712129626310666 -2.593073359297989 -0.198257020269749 27.000000000000000
9.716963406785144 -2.615043717919669 -0.229928361248516 24.000000000000000
9.729225172270368 -2.601871019426447 -0.259760569554255 21.000000000000000
9.707329691584150 -2.615019246574775 -0.289195614637006 20.000000000000000
6.420089695272643 -1.726931198119864 -0.208709336816104 32.000000000000000
6.419223497954542 -1.716928363010588 -0.228506017375660 27.000000000000000
6.428921972405238 -1.735556775125843 -0.249767082135030 34.000000000000000
9.745065464665462 -2.601368659190264 -0.382200550478638 24.000000000000000
9.741778782646451 -2.620421321659293 -0.413472347036602 23.000000000000000
9.738422322623206 -2.602136937079614 -0.441856729596349 22.000000000000000
9.723576029427987 -2.617557090978934 -0.471980726965016 20.000000000000000
9.716299954087205 -2.598003138790439 -0.499330208858593 24.000000000000000
9.716455678600568 -2.618193071007738 -0.531302905051123 24.000000000000000
9.722019550042528 -2.628138282762613 -0.563159937525631 25.000000000000000
4.352556095930085 -1.164235075992778 -0.265565138141945 5.000000000000000
9.729482511493776 -2.596378682881223 -0.622205874821476 21.000000000000000
4.317700616409498 -1.166011612744171 -0.329862067221553 7.000000000000000
9.721379596960286 -2.628124592533489 -0.804704126502900 25.000000000000000
4.280048098875735 -1.149103535117931 -0.418428754267261 1.000000000000000
4.254435528578773 -1.137367894979803 -0.494393786588223 4.000000000000000
4.189262695411258 -1.126055380572197 -0.561156274489124 10.000000000000000
4.147528360579026 -1.107463590136021 -0.629781507895290 9.000000000000000
4.000021632944966 -1.071994002988419 -1.002182405810589 7.000000000000000
10.329225958333378 -2.804796204143798 2.581993082586381 2.000000000000000
10.454007228813939 -2.836698806129753 2.020058976821113 4.000000000000000
0.484306721278060 -0.131159245793121 0.047093383700080 0.000000000000000
0.493836650622476 -0.134936479456364 0.043689181358535 0.000000000000000
6.395941789458517 -1.750241565902179 0.275564833393223 41.000000000000000
6.389070712164314 -1.743678958156416 0.215884571268749 36.000000000000000
6.404415970481930 -1.739449772214137 0.195779912383965 40.000000000000000
6.404012723982714 -1.754623965251561 0.175171270696022 34.000000000000000
6.399175741542414 -1.749540961423833 0.154745505622991 35.000000000000000
6.406854973052382 -1.742605930107196 0.134211805518346 42.000000000000000
6.395059657015206 -1.743999879039208 0.095014152510975 38.000000000000000
6.398825778174084 -1.735499820323980 0.075682412853003 37.000000000000000
6.401823922328785 -1.752100519829050 0.054522108018732 37.000000000000000
6.419120458163992 -1.755005832439025 0.032363300296569 47.000000000000000
6.400252394444234 -1.738648282535728 0.013853706858445 47.000000000000000
9.717943165558669 -2.634993598981374 -0.018483139688562 26.000000000000000
9.723221314484725 -2.656826964133941 -0.050187131024767 20.000000000000000
9.709530666986783 -2.635340696839748 -0.078500630999962 19.000000000000000
6.420113339208775 -1.756889508367273 -0.067910946734236 41.000000000000000
6.429563663966215 -1.757240296247289 -0.089676565010530 44.000000000000000
6.436576285100569 -1.750059262716860 -0.110321600548357 41.000000000000000
9.716003555533565 -2.631510971366083 -0.199903405230662 27.000000000000000
6.434688911364680 -1.754902951221176 -0.150423996318655 37.000000000000000
9.729314131534153 -2.639100583932695 -0.261201051251778 20.000000000000000
6.406456372474937 -1.750030570363805 -0.187535133828202 44.000000000000000
6.415582566642723 -1.750201533882617 -0.209486293223798 43.000000000000000
6.407301308534520 -1.737463887938723 -0.228434124419763 32.000000000000000
6.420685986762739 -1.757490840123012 -0.250125687345612 34.000000000000000
9.745100594883496 -2.638652342562985 -0.383782839044080 23.000000000000000
9.737977084449430 -2.656443581117557 -0.414731692696513 21.000000000000000
4.583107305395498 -1.241135056006648 -0.216831018836468 5.000000000000000
9.727369033732762 -2.656031925828501 -0.474048858771476 16.000000000000000
9.716406767353009 -2.635165706413105 -0.501048954429398 26.000000000000000
9.739152902019081 -2.662915569543429 -0.535488396561952 17.000000000000000
6.392948637422007 -1.745496464165036 -0.367598670874535 51.000000000000000
4.360911910141871 -1.184918155847328 -0.268413281876500 4.000000000000000
9.729535877364562 -2.633591552251715 -0.624065639216475 21.000000000000000
4.315077163987834 -1.182087203605235 -0.330811998335138 6.000000000000000
4.284713065724129 -1.168040677804967 -0.421028645411456 4.000000000000000
4.251877802408496 -1.153208970235433 -0.495485447338305 5.000000000000000
4.190313588036757 -1.143175513561779 -0.563229740865260 10.000000000000000
4.152190068365991 -1.125915162617133 -0.632966346486610 9.000000000000000
4.011439098664229 -1.092821315130330 -1.008986645382594 7.000000000000000
9.959144156207767 -2.759211265863662 2.511256935644970 2.000000000000000
6.795826804487345 -1.864494084150444 1.115079625748886 24.000000000000000
6.400492695761590 -1.757768645145077 0.637498160270448 32.000000000000000
0.498625580464728 -0.136788690340225 0.041987540648653 0.000000000000000
6.398879641296635 -1.776256987070134 0.274795062899900 40.000000000000000
6.380847728847828 -1.765479672945887 0.215528277187802 33.000000000000000
6.392475052335949 -1.759919079237456 0.195607140957858 39.000000000000000
6.390873101152570 -1.771373924665561 0.154387884590148 39.000000000000000
6.406085202098157 -1.767240143471220 0.133414398904806 40.000000000000000
6.402524063643781 -1.756389895293111 0.114249543287498 28.000000000000000
6.394319175390503 -1.768589522010728 0.094171077657258 32.000000000000000
6.390643048093509 -1.757323256720760 0.075325814089775 37.000000000000000
6.401089081928253 -1.776707255793092 0.053632251307916 34.000000000000000
6.414531845300111 -1.778298591131986 0.031726177680435 45.000000000000000
6.395741926263836 -1.761869911264682 0.013206006041101 47.000000000000000
6.418062080780481 -1.760231180952381 -0.007781881677962 37.000000000000000
6.394545701742992 -1.766982311481549 -0.026698768139193 32.000000000000000
6.413017957319777 -1.763908003526538 -0.047231524105286 46.000000000000000
6.415606536758022 -1.780174387270733 -0.068605589121722 36.000000000000000
6.421221788026059 -1.779178643229159 -0.090035693434637 43.000000000000000
6.428277948191046 -1.772020918769975 -0.110680915501788 41.000000000000000
9.738629595333343 -2.676392462526877 -0.202934223802905 24.000000000000000
6.426407879968563 -1.776859951300253 -0.150782813263484 36.000000000000000
6.407199908151692 -1.759915461034502 -0.167500765204431 47.000000000000000
6.413163507545762 -1.777387737130120 -0.189519905118021 44.000000000000000
6.418444260209308 -1.776252508438979 -0.211100351266116 45.000000000000000
6.391580381940408 -1.756565191427043 -0.227931047969051 39.000000000000000
6.412370822307719 -1.779399081778394 -0.250483929225253 35.000000000000000
9.737437493683080 -2.673431446502569 -0.384672229922451 20.000000000000000
4.602253609129518 -1.267068768727505 -0.221160557609372 6.000000000000000
9.721918743415287 -2.665369183326575 -0.564951392001186 23.000000000000000
4.372817125489117 -1.207195048288668 -0.271914103028482 3.000000000000000
9.725675686125969 -2.669574319845566 -0.625486495261981 19.000000000000000
9.717514179398425 -2.664069379162420 -0.806263477488890 25.000000000000000
4.274820647316113 -1.180981042912499 -0.420481786935076 7.000000000000000
4.242045639494513 -1.166043015140019 -0.494870143708215 5.000000000000000
4.194878793670146 -1.161836092974404 -0.566223245374967 10.000000000000000
4.149623410237005 -1.141411245338247 -0.634183465751089 8.000000000000000
4.012337280697382 -1.109292024069212 -1.011843953029171 6.000000000000000
