# This PCD file was generated using the MATLAB® pcwrite function
# from Computer Vision Toolbox®.
# .PCD v.7 - Point Cloud Data file format
VERSION .7
FIELDS x y z intensity
SIZE 8 8 8 8
TYPE F F F F
COUNT 1 1 1 1
WIDTH 637
HEIGHT 1
VIEWPOINT 0 0 0 1 0 0 0
POINTS 637
DATA ascii
0.281877711154483 -0.298917051922011 0.057838093322072 0.000000000000000
5.594193060017082 -5.922181724435141 0.870683024875101 36.000000000000000
5.950162798209336 -6.281732186422467 0.464638154936410 35.000000000000000
5.905133867739140 -6.274780077368128 0.305124738366571 31.000000000000000
8.828181784454056 -9.335093426574765 0.442534534852072 38.000000000000000
8.829853467078022 -9.369410229813553 0.403349662756447 38.000000000000000
8.820949560787911 -9.322564644647592 0.365078724822256 33.000000000000000
5.919635556172601 -6.267360076459418 0.225508027331469 37.000000000000000
5.904155029424293 -6.273192760185822 0.199421000032142 31.000000000000000
5.920284871071393 -6.268080261614699 0.172634275685536 41.000000000000000
5.923874594391989 -6.293870533398653 0.144355029408588 44.000000000000000
5.926932380206688 -6.273273401238363 0.118143837122669 37.000000000000000
5.916434087606918 -6.285087969244671 0.091573098279032 25.000000000000000
5.911409925368487 -6.255391180080998 0.066422489470489 34.000000000000000
5.900852374673144 -6.266786203746548 0.040095622167672 35.000000000000000
5.908831243924530 -6.252251746951487 0.013930182657715 35.000000000000000
5.906956626256610 -6.271556146683459 -0.014212801245128 39.000000000000000
5.917483484098515 -6.259709645189524 -0.040956270584972 40.000000000000000
5.878090002347554 -6.237879507261312 -0.064475235285656 32.000000000000000
5.877900345227619 -6.213984558472653 -0.089493597302814 33.000000000000000
5.869716930148272 -6.227981079391789 -0.115634440511074 40.000000000000000
5.877309235365185 -6.213323626508128 -0.141822039548607 33.000000000000000
5.877838041269470 -6.235040859378586 -0.170687954667152 40.000000000000000
8.858652354444802 -9.357848254026315 -0.262716397475968 39.000000000000000
8.872086520714491 -9.405604793236705 -0.305670966276468 40.000000000000000
8.867254119334323 -9.363418069143606 -0.341814289112881 35.000000000000000
8.867149782572122 -9.396217574467485 -0.382993202632158 33.000000000000000
5.870080581171836 -6.202405322550554 -0.299291774615540 30.000000000000000
5.872924035079219 -6.226987688168634 -0.328811079987441 37.000000000000000
5.872364701644303 -6.202517549512379 -0.353538021508512 34.000000000000000
5.863677055750193 -6.216055381524619 -0.379776662058896 39.000000000000000
5.865457378042079 -6.194615254567168 -0.404736749701759 34.000000000000000
5.856724352505760 -6.208010749653205 -0.430482619824169 39.000000000000000
5.861068194126613 -6.189430560804681 -0.456041248920353 30.000000000000000
5.853265368517489 -6.201534118931818 -0.484275869941207 39.000000000000000
8.890792241051260 -9.419371613317985 -0.780440714809339 38.000000000000000
5.861578970376542 -6.211060044965528 -0.537740252198413 38.000000000000000
8.897246333661718 -9.422665966382020 -0.859518906934812 31.000000000000000
8.883070921235099 -9.439368991682784 -0.897814924746190 34.000000000000000
8.890363768222524 -9.410603186032127 -0.936240211180927 37.000000000000000
8.881490262295156 -9.405065846990020 -1.015512327322361 33.000000000000000
5.857687787755655 -6.204037040388847 -0.695485863435320 36.000000000000000
5.862384415638555 -6.206902140536670 -0.854770418602071 35.000000000000000
5.878012657480054 -6.222502747437382 -1.018760955555326 38.000000000000000
5.882007457122112 -6.224920051118417 -1.152694924154974 35.000000000000000
5.909091835902760 -6.253383602144893 -1.347154414735914 23.000000000000000
5.491848448080580 -5.808941456819881 -1.520282138410344 12.000000000000000
2.659028051386484 -2.809694476211902 -1.006599779973912 1.000000000000000
6.119190583889530 -6.548073664972122 1.731057768051875 25.000000000000000
5.587076128053026 -5.959381294077303 0.871357544191978 35.000000000000000
5.931401121957272 -6.307998818293306 0.464253742323860 46.000000000000000
5.857852907554113 -6.267405036914404 0.305634169255235 37.000000000000000
5.894985768828604 -6.286680072409858 0.278264289703197 32.000000000000000
5.851060465150551 -6.259212382826284 0.253250194844783 37.000000000000000
8.818144692231437 -9.388738600550425 0.364024156701504 30.000000000000000
5.867287688748243 -6.278018181224908 0.199790567198722 24.000000000000000
5.891223166441076 -6.282098111775447 0.172604168103700 28.000000000000000
5.886889473431854 -6.298757350950410 0.144841363143442 34.000000000000000
5.913379159920051 -6.305527825549298 0.117100877718907 24.000000000000000
5.874316704394976 -6.283864707542733 0.092554385574457 22.000000000000000
5.890156813170560 -6.278480198122097 0.065887125212400 26.000000000000000
5.874380558349896 -6.283766200232627 0.039972335021573 30.000000000000000
5.879820052744691 -6.266233121426126 0.014042048014702 39.000000000000000
5.880407668810824 -6.288555586642715 -0.014313677618387 41.000000000000000
5.883198515796428 -6.267653107541797 -0.040304166544015 44.000000000000000
5.854277165583316 -6.257802527635299 -0.064809744242937 32.000000000000000
5.851589279891112 -6.230889158360462 -0.089556936484055 34.000000000000000
5.840782475073656 -6.241823866497590 -0.115403448135359 38.000000000000000
5.851027832966500 -6.230230960444409 -0.141861245031829 40.000000000000000
5.846237124586946 -6.245870902369610 -0.170105010869437 37.000000000000000
8.866172377129896 -9.436071697860385 -0.266972554041977 32.000000000000000
5.832463985428079 -6.229682555383249 -0.220834788421457 41.000000000000000
5.839806271510810 -6.214742667685066 -0.246571976553089 33.000000000000000
5.826145305439809 -6.222350236849820 -0.271851756353766 40.000000000000000
8.851251279061948 -9.410791466343106 -0.421455373885502 34.000000000000000
5.843832135211176 -6.219291888967859 -0.299260281723709 36.000000000000000
5.841353028960839 -6.237817577422298 -0.328017732384192 42.000000000000000
5.859001308620670 -6.234534309217068 -0.355421970947898 33.000000000000000
5.829587051253347 -6.223820226368026 -0.378513748576829 36.000000000000000
5.857330250062368 -6.232634487711863 -0.407535444695494 28.000000000000000
5.822688715840009 -6.215779601213136 -0.429126167674422 38.000000000000000
5.840040636127362 -6.212324810859961 -0.456807846248188 36.000000000000000
5.834685099279195 -6.227433157013714 -0.485500164847311 45.000000000000000
5.828737144432134 -6.196631605489522 -0.508889482039303 36.000000000000000
5.835254615593534 -6.227903739359910 -0.537605034187207 33.000000000000000
8.882170303643523 -9.442955204885962 -0.978970214402847 38.000000000000000
5.826235678202440 -6.214846780520347 -0.694204020847265 35.000000000000000
5.838636921500068 -6.226770197328854 -0.855103548492109 30.000000000000000
5.856764177994215 -6.245418000112032 -1.019771335424882 38.000000000000000
5.855624858855052 -6.241867610326615 -1.152296813550652 49.000000000000000
5.867330408067774 -6.252578613644687 -1.341811894657857 37.000000000000000
5.738101814037426 -6.099053439893311 -1.456332847748324 17.000000000000000
5.477007969604415 -5.836416712686187 -1.523424890685900 12.000000000000000
2.665532469747784 -2.842293967627860 -1.017478428130413 1.000000000000000
5.566866256672911 -5.981360179767222 0.871205284239827 43.000000000000000
5.909933199355800 -6.331169539812386 0.463892580145590 46.000000000000000
5.866371210341313 -6.303791642109751 0.437666369259513 23.000000000000000
5.837366029401155 -6.267047595422802 0.279304453163348 38.000000000000000
5.845902718056001 -6.276983849098059 0.226131210182713 33.000000000000000
5.851771047136214 -6.283818058962297 0.173187384956760 47.000000000000000
5.847938414395930 -6.276852747390180 0.119590856084551 34.000000000000000
5.824531936431825 -6.273296639158723 0.094104635315513 38.000000000000000
5.848109275661908 -6.277155561124538 0.066953332326584 24.000000000000000
5.827194870177840 -6.276267101549081 0.041544854261942 35.000000000000000
5.843013476033025 -6.270969560821442 0.014826096391209 30.000000000000000
5.843493922469966 -6.293256112618707 -0.013472094234883 36.000000000000000
5.861851197097177 -6.290648801847688 -0.040886407045144 42.000000000000000
5.814914233099239 -6.259381248200711 -0.063588881491253 33.000000000000000
5.830399511948700 -6.253774153233032 -0.090160208501135 25.000000000000000
5.814401251078605 -6.258586584359037 -0.115452821160435 23.000000000000000
5.827283600396777 -6.250072286634278 -0.142193709105929 26.000000000000000
5.822357823766202 -6.265696709379270 -0.170438066361442 35.000000000000000
5.819701822419935 -6.238765798436411 -0.195188112538293 32.000000000000000
5.798361854545643 -6.237293890507154 -0.219849094352150 35.000000000000000
5.813496556795091 -6.231511963162760 -0.246563034482126 22.000000000000000
5.799827291738588 -6.239066293941349 -0.271830363023503 35.000000000000000
5.820117026570745 -6.239110934497084 -0.299591853730091 36.000000000000000
5.814921420568973 -6.254585721351411 -0.327974425957293 43.000000000000000
5.827433426275938 -6.245302780767851 -0.354592244974872 38.000000000000000
5.798084750278138 -6.234479719240994 -0.377647493572677 38.000000000000000
5.823216577970729 -6.240378754661059 -0.406224017138105 30.000000000000000
5.796388719995818 -6.232491766262442 -0.429034175333621 40.000000000000000
5.808603344698405 -6.223051184564980 -0.455835935080778 37.000000000000000
5.808285343878204 -6.244184244712990 -0.485386284141498 45.000000000000000
5.823048369733485 -6.237588344093162 -0.512424100875121 34.000000000000000
5.803742815673393 -6.238599215393911 -0.536530030746914 30.000000000000000
5.797340306242587 -6.228555815242650 -0.693458780974857 35.000000000000000
5.812261172723820 -6.243552223070161 -0.854828468662356 33.000000000000000
5.835423385640892 -6.268286010226078 -1.020780098490290 34.000000000000000
5.841919316124020 -6.273713222316999 -1.155560600778914 50.000000000000000
5.843396298467324 -6.272472802602564 -1.342145597489308 38.000000000000000
5.699534610859608 -6.100657267200219 -1.451392323407262 17.000000000000000
5.452009979958106 -5.851981750708298 -1.522792467426629 12.000000000000000
2.678707949682132 -2.883957801912615 -1.032381970729440 0.000000000000000
5.841921657208982 -6.327485090125556 2.164614843873875 28.000000000000000
6.161163953665858 -6.647444637269750 1.744084447937596 1.000000000000000
0.506019216656375 -0.545266999968213 0.071489160411645 0.000000000000000
0.522822115059830 -0.563623725363513 0.063448488941437 0.000000000000000
5.821016976172523 -6.272006135571878 0.305771199166070 47.000000000000000
5.813452393105011 -6.286828507039424 0.278972000307843 42.000000000000000
5.850436386933564 -6.306522976575636 0.251858881477022 32.000000000000000
5.811668656706974 -6.284585638831828 0.226317052107218 39.000000000000000
5.840793108114314 -6.294868815056226 0.199598504415614 36.000000000000000
5.827855018001747 -6.303649136033314 0.172854811545993 34.000000000000000
5.849939852910603 -6.303467265036247 0.145329937478023 42.000000000000000
5.836860402738468 -6.311948564689970 0.118374199212582 41.000000000000000
5.811293866269516 -6.281726827741039 0.067622582298503 39.000000000000000
5.816554870967465 -6.287724712147828 0.014718141352966 43.000000000000000
5.804047213222033 -6.294729260034380 -0.012391654031105 47.000000000000000
5.830114460438015 -6.301363719409075 -0.040477507394527 44.000000000000000
5.785884884457774 -6.272990252051187 -0.063401660195731 35.000000000000000
5.791092708292819 -6.255254169207426 -0.088866041355548 37.000000000000000
5.772549741231046 -6.256938763572649 -0.113806649918608 42.000000000000000
5.785437329681763 -6.248498800655980 -0.140464356899591 40.000000000000000
5.780448634726360 -6.264065409549644 -0.168627763520401 44.000000000000000
5.780433534583771 -6.240201164952843 -0.193612156395089 43.000000000000000
5.777106244877581 -6.260005779927127 -0.220508193964932 41.000000000000000
5.781993832170320 -6.242091296451974 -0.245869637587154 40.000000000000000
5.773460123571658 -6.255684155795350 -0.271806655440564 44.000000000000000
5.793759130608130 -6.255791581174385 -0.299557514987036 37.000000000000000
5.785878418960980 -6.268204222866771 -0.327553992065263 43.000000000000000
5.800994010780258 -6.262006077762351 -0.354536243120487 40.000000000000000
5.774264507972063 -6.254136487532918 -0.377977311509162 40.000000000000000
5.789116771802025 -6.247969565922219 -0.404909951211220 34.000000000000000
5.772603300550935 -6.252142849340096 -0.429363612581256 41.000000000000000
5.782296950980280 -6.239698740020188 -0.455731183252379 37.000000000000000
5.784394060014483 -6.263879381140356 -0.485716969766353 43.000000000000000
5.801759123265544 -6.260354009190763 -0.513213309353420 35.000000000000000
5.777340895761025 -6.255238510043185 -0.536390918234392 31.000000000000000
5.770970500672096 -6.245178191917702 -0.693250031690304 34.000000000000000
5.780740531291379 -6.254189297600135 -0.853337265079367 31.000000000000000
5.811450282912990 -6.288072165273093 -1.021112227432145 33.000000000000000
5.820454540940423 -6.296526516154096 -1.156626002041471 46.000000000000000
5.814339869332251 -6.286298194623683 -1.340854633997004 34.000000000000000
5.643405253907174 -6.081199049091609 -1.440302364571316 20.000000000000000
5.436954745606041 -5.879365335476976 -1.525934452995242 16.000000000000000
0.230991163370286 -0.250776785077527 0.083770232260636 0.000000000000000
0.275410239747682 -0.299796880689499 0.057809972718879 0.000000000000000
5.538971381846217 -6.040486993922187 0.871728365474426 37.000000000000000
5.756171550697829 -6.245549653233923 0.464188790350320 34.000000000000000
5.804783892230558 -6.300934467398399 0.305157027718072 46.000000000000000
5.809997884018024 -6.331073057632928 0.277792060482921 36.000000000000000
5.826398384843841 -6.326364075619125 0.251526343004865 29.000000000000000
5.810828684792440 -6.331873381600957 0.224819013308955 33.000000000000000
5.819282756302988 -6.341783854942292 0.171604809705005 30.000000000000000
5.820735459953397 -6.317185457540702 0.145327000785626 39.000000000000000
5.805084001288094 -6.322549164899229 0.118572497028534 36.000000000000000
5.818599266812626 -6.314456027326550 0.092453294765274 34.000000000000000
5.797612864995214 -6.313676305084186 0.066490117096133 27.000000000000000
5.803281074478885 -6.296028359309624 0.041214187922029 47.000000000000000
5.795182410333101 -6.310507079726094 0.014164310033578 35.000000000000000
5.800935204310699 -6.315011432201146 -0.040314423084894 40.000000000000000
5.787744707732449 -6.299348419496496 -0.091363639252063 27.000000000000000
5.761490701274836 -6.291817562446177 -0.115547026941538 34.000000000000000
5.774452497359428 -6.283388617243951 -0.142264821700534 28.000000000000000
5.764167665034563 -6.292838277550565 -0.169875259257758 44.000000000000000
5.759148403331210 -6.262852297456575 -0.194259220845729 41.000000000000000
5.755759815567746 -6.282647436851370 -0.221166589359171 30.000000000000000
5.760730678550233 -6.264744636368235 -0.246539838427751 29.000000000000000
5.754713365940910 -6.281372108504677 -0.272840314098446 36.000000000000000
5.769914678941772 -6.275432439410508 -0.299886787531910 35.000000000000000
5.764462701930819 -6.290861928236659 -0.328259652538816 39.000000000000000
5.771947812434684 -6.275574777985746 -0.354089908548147 38.000000000000000
5.752926025113922 -6.276766970840583 -0.378705230653450 35.000000000000000
5.775493614311186 -6.279787001568359 -0.406884250887275 32.000000000000000
5.748747752307613 -6.271715493254305 -0.429691183247250 34.000000000000000
5.758499850027265 -6.259300995913463 -0.456059314891429 36.000000000000000
5.757885337594510 -6.280424677562586 -0.485600695947729 41.000000000000000
5.775271921908542 -6.276979694772905 -0.513085668622802 35.000000000000000
5.761081734209800 -6.283966438614570 -0.538127356821884 27.000000000000000
5.747094846516610 -6.264739655362099 -0.693578368449103 28.000000000000000
5.759361901278785 -6.276814077884730 -0.854273605955008 33.000000000000000
5.779816059234710 -6.298704027902097 -1.019413715004141 28.000000000000000
5.798897887099630 -6.319277099158633 -1.157689945710762 38.000000000000000
5.792800103593073 -6.309012819552684 -1.341997145964124 29.000000000000000
5.610036912607434 -6.088348828065762 -1.437111212669723 19.000000000000000
5.396904979488827 -5.876851447280131 -1.519634766468650 25.000000000000000
5.113837381435456 -5.577583650212453 -1.561673523134419 11.000000000000000
2.680221650530574 -2.910748908274229 -1.040581707400278 0.000000000000000
5.796350572687176 -6.370065067050660 2.164670505225073 30.000000000000000
0.271268198801434 -0.296731098412231 0.059534806986158 0.000000000000000
0.504820087406160 -0.553467715960544 0.068762676217119 0.000000000000000
5.722085389667951 -6.252755755215766 0.463955334497473 34.000000000000000
5.790976588875987 -6.332890036849001 0.304448512098136 45.000000000000000
5.783301633878049 -6.347701405890191 0.277567870330485 46.000000000000000
5.789481573855133 -6.330771960546208 0.251783922458137 38.000000000000000
5.791827490735081 -6.357722239901719 0.224229034810789 34.000000000000000
5.795345235180379 -6.337473743799784 0.198794528756555 34.000000000000000
5.800277883152894 -6.367660094119344 0.170967700371943 32.000000000000000
5.811976937727897 -6.355326297784067 0.144004331565755 32.000000000000000
5.798845540153469 -6.363744867940881 0.117002245047378 34.000000000000000
5.797084102129944 -6.337253129914195 0.091933461520184 28.000000000000000
5.786331224716328 -6.348686216728780 0.065157156601281 28.000000000000000
5.779297353661093 -6.315707456438815 0.040884047277800 31.000000000000000
5.786503246422692 -6.348560366904877 0.012490391710526 26.000000000000000
5.797905080792248 -6.335861746614029 -0.014372016131498 37.000000000000000
5.792149645450191 -6.353095492234054 -0.042131029743382 31.000000000000000
5.779855040661346 -6.314053343554512 -0.065545336668320 23.000000000000000
5.753512058746651 -6.306703321131337 -0.090608275449404 27.000000000000000
5.763290984940454 -6.318282950756149 -0.144065913576058 27.000000000000000
5.750521354600766 -6.300768207458759 -0.196496083120906 35.000000000000000
5.749578307608868 -6.299585938204388 -0.248574484070493 27.000000000000000
5.756205367874921 -6.307228067375341 -0.301673923813306 32.000000000000000
5.742955567088041 -6.313468738898933 -0.328964530972335 34.000000000000000
5.763247754385645 -6.313500418597002 -0.356747925051784 33.000000000000000
5.734038932505099 -6.302389342967956 -0.379832125743973 31.000000000000000
5.756620850611762 -6.305480441264017 -0.408035960910579 26.000000000000000
5.729906538213701 -6.297319221336821 -0.430863820074571 32.000000000000000
5.744822714545743 -6.291032650766027 -0.458125582854756 30.000000000000000
5.749087041097320 -6.318301683505432 -0.488606074094004 31.000000000000000
5.753821483230031 -6.299608385665948 -0.513873013884202 29.000000000000000
5.734540101540956 -6.300437443786173 -0.537986163345028 28.000000000000000
5.733277334233064 -6.296418278280782 -0.696060296732281 29.000000000000000
5.747996343639203 -6.311544438082365 -0.857638893837037 30.000000000000000
5.765812802418091 -6.330424899844445 -1.022448930046690 33.000000000000000
5.789818511869976 -6.357078255771370 -1.162419398334719 40.000000000000000
5.778682508215386 -6.340693822933211 -1.345574456342059 30.000000000000000
5.574188688611333 -6.092348917751394 -1.433039044403651 19.000000000000000
5.379221409940016 -5.901099849738962 -1.521830268372027 21.000000000000000
5.094699446523803 -5.597843017517889 -1.562973360763671 11.000000000000000
2.695190296384840 -2.955645398676232 -1.056830987378891 0.000000000000000
0.236488370304136 -0.261031287930926 0.078563588849042 0.000000000000000
5.746077294700257 -6.342605217091240 1.203204538258129 11.000000000000000
5.695663674882731 -6.269069772488720 0.463653335785194 29.000000000000000
5.766816218843729 -6.352523040531068 0.304118232259526 52.000000000000000
5.754012513784730 -6.361140082595895 0.277450981067114 45.000000000000000
5.783212574463100 -6.371952373510453 0.250627997105383 33.000000000000000
5.757435214851888 -6.365027821709937 0.224419431998675 35.000000000000000
5.776328324165949 -6.363275451252612 0.198181937744052 36.000000000000000
5.776064401617960 -6.387326644311571 0.170637990466918 32.000000000000000
5.792825267784899 -6.381191248467978 0.143342763740335 35.000000000000000
5.779668678577726 -6.389568913445231 0.116317011446328 32.000000000000000
5.775477249229986 -6.359983750851988 0.091414219074185 33.000000000000000
5.772327299017478 -6.380618676828504 0.064025412273867 30.000000000000000
5.767997825439604 -6.350669347083745 0.039494271575937 24.000000000000000
5.764894302192065 -6.371255104054455 0.011937140924520 32.000000000000000
5.783903199406474 -6.367820284051852 -0.015645348038970 34.000000000000000
5.775539093610854 -6.381969139883232 -0.043204583678963 33.000000000000000
5.768509791652381 -6.349011325410970 -0.067171319695535 26.000000000000000
5.742180540449045 -6.341583815703665 -0.092291819114088 29.000000000000000
5.742608900648030 -6.317487649971888 -0.116440038976732 26.000000000000000
5.754496454912109 -6.356256995137947 -0.146161358903841 25.000000000000000
5.745209251234652 -6.318519376888560 -0.170816744820362 36.000000000000000
5.739157219555224 -6.335631411685902 -0.198414942689047 30.000000000000000
5.739411678049109 -6.311364973715790 -0.222483109011556 32.000000000000000
5.723010363344905 -6.315998888859951 -0.248560447631358 30.000000000000000
5.738399848138595 -6.310075311124834 -0.274226421208714 34.000000000000000
5.742340408715565 -6.339012315913799 -0.303460836119171 29.000000000000000
5.749277659896306 -6.345310940170876 -0.358629999071105 31.000000000000000
5.727490742155723 -6.318858541057388 -0.407539869969360 27.000000000000000
5.738600568300019 -6.331939263026015 -0.461496628422415 27.000000000000000
5.712302594571657 -6.322440693078924 -0.486702344770878 29.000000000000000
5.724684046985690 -6.312987660148508 -0.513283963209969 27.000000000000000
5.725635543295752 -6.338266972576250 -0.541129422193236 25.000000000000000
5.724348739562531 -6.334195590163269 -0.699620678077773 25.000000000000000
5.738971413003343 -6.349322806649518 -0.861612871361290 23.000000000000000
5.751655235827767 -6.362130720628038 -1.025483786340890 37.000000000000000
5.770529944030875 -6.382767714229246 -1.164216204618289 42.000000000000000
5.759422474306172 -6.366321985255702 -1.347526960556038 34.000000000000000
5.540863478583034 -6.099186725997619 -1.429843191951783 20.000000000000000
5.363896371316773 -5.928304266915617 -1.524969662712965 29.000000000000000
5.073033296440469 -5.615048228738431 -1.563263208278661 11.000000000000000
5.701716963837397 -6.337426014754662 1.200435267201164 33.000000000000000
5.543487915145555 -6.139687557974135 0.874392817917774 20.000000000000000
5.656502307847870 -6.269822802272692 0.463472585589552 29.000000000000000
5.745124154251716 -6.375163305260912 0.303694634795966 49.000000000000000
5.737366979884344 -6.389922656763353 0.276802925108693 39.000000000000000
5.764022250372875 -6.397734997621200 0.250062291878901 29.000000000000000
5.743343280964478 -6.396909157962682 0.223571024553352 27.000000000000000
5.759740454351494 -6.392113507450020 0.197428082173725 32.000000000000000
5.781173541362818 -6.416267555505925 0.142185269550484 28.000000000000000
5.770510328012300 -6.427706008152505 0.114923316369829 22.000000000000000
5.769012208556759 -6.401160005900195 0.089762716187791 26.000000000000000
5.763236135897305 -6.418715207422785 0.062491246730898 19.000000000000000
5.759061393815262 -6.388717730984474 0.037891792036197 31.000000000000000
5.763476756769258 -6.418570005201815 0.009590339093896 23.000000000000000
5.769744743681288 -6.399767333185736 -0.016918972769437 30.000000000000000
5.763856054826787 -6.416987542044943 -0.044773760852528 27.000000000000000
5.754450342631099 -6.380891365991872 -0.068537880326231 23.000000000000000
5.743332787717064 -6.391893655121841 -0.095332283134414 23.000000000000000
5.733767032518200 -6.355423035414788 -0.118463615048506 26.000000000000000
5.745502847984831 -6.394255025828102 -0.148257468945563 22.000000000000000
5.736271827628560 -6.356475716483672 -0.172982769377026 33.000000000000000
5.732673146344601 -6.376664623338087 -0.200970562730486 22.000000000000000
5.725464552679663 -6.343124956701715 -0.224129523463781 27.000000000000000
5.729273630826961 -6.372355771039985 -0.252986919962498 22.000000000000000
5.719417931990705 -6.335671912323640 -0.275258890468607 30.000000000000000
5.725790607279405 -6.367705406988144 -0.304882411027991 21.000000000000000
5.739068738376004 -6.357537791975702 -0.332303749348035 29.000000000000000
5.732626594618537 -6.374032497460327 -0.360122898959852 25.000000000000000
5.727692537549874 -6.343327857279697 -0.382957286370685 25.000000000000000
5.723589974376404 -6.362863695836850 -0.411160938851149 21.000000000000000
5.726140752745970 -6.341282629457694 -0.434573711013311 26.000000000000000
5.737211500406707 -6.379023217053621 -0.465738547528039 22.000000000000000
5.730814237116531 -6.369246554755144 -0.519110391153661 23.000000000000000
5.722233324672109 -6.377946783129268 -0.863763418816262 24.000000000000000
5.739840964886504 -6.396868448794820 -1.029195597926367 30.000000000000000
5.753621242928290 -6.411446475212678 -1.166745655971865 34.000000000000000
5.737567569881914 -6.388865207476556 -1.348667339056085 35.000000000000000
5.524878319234000 -6.126993435555235 -1.432793967806172 18.000000000000000
5.348442685786782 -5.955486405005878 -1.528108734007420 25.000000000000000
6.653531323937353 -7.458215670467162 2.417383357280666 5.000000000000000
5.546592843663039 -6.195984270770836 1.184245294953809 29.000000000000000
5.547848844746497 -6.192525472628617 0.875887213011117 21.000000000000000
5.627512135382602 -6.282791975931282 0.463198630664142 25.000000000000000
5.720813218749472 -6.394637788817803 0.303366670162929 37.000000000000000
5.723110115890904 -6.421777776391160 0.276048857669532 22.000000000000000
5.739659945014859 -6.417274498055278 0.249734384861189 15.000000000000000
5.763264372823784 -6.445675328921801 0.195540051515022 20.000000000000000
5.794909316865445 -6.459415525554007 0.167697363737597 21.000000000000000
5.799665809176830 -6.488506191915036 0.139041757727965 19.000000000000000
5.792665067336257 -6.479498990225650 0.085840586291943 17.000000000000000
5.760043468713231 -6.439153787407449 0.035438589269763 19.000000000000000
5.765531514355345 -6.444069307567673 -0.019137106985910 22.000000000000000
5.772158030812495 -6.476776737108736 -0.048328484225221 17.000000000000000
5.752865771967070 -6.428208953215396 -0.071202724344279 17.000000000000000
5.759328154648960 -6.460853244702967 -0.100004792763158 16.000000000000000
5.722198665253796 -6.390295490731319 -0.120204488117251 23.000000000000000
5.722090800163469 -6.388271582314815 -0.174536061050927 27.000000000000000
5.748627957208834 -6.445563414708772 -0.206394390750947 15.000000000000000
5.729026420926191 -6.396470775007309 -0.228085904744176 22.000000000000000
5.737727975265933 -6.431926431608893 -0.257758172925883 14.000000000000000
5.723041519231543 -6.388964171455655 -0.279469473651448 23.000000000000000
5.744374274168727 -6.439565236473577 -0.311417592404394 15.000000000000000
5.734940919477642 -6.401658705196496 -0.335644779056704 23.000000000000000
5.738470708728860 -6.430501249441427 -0.365113439677533 21.000000000000000
5.726167117716804 -6.390458084026989 -0.386884059678357 25.000000000000000
5.732021643085933 -6.422341833316786 -0.416842182686363 20.000000000000000
5.734735320136615 -6.400690499206988 -0.440399681157294 21.000000000000000
5.733043841001432 -6.423105796377136 -0.469546533400615 21.000000000000000
5.725864348557065 -6.387968693476232 -0.493725607082321 24.000000000000000
5.729086625965071 -6.416390191982202 -0.523563697697256 21.000000000000000
5.734143621181296 -6.397630578049736 -0.547561433699288 23.000000000000000
5.727775936620384 -6.387326226085527 -0.705876036086177 21.000000000000000
5.718094317754236 -6.414382519140325 -1.350619111677871 28.000000000000000
5.548189030519733 -6.203188233931584 -1.449803523184904 14.000000000000000
5.349971861779514 -6.003793006163605 -1.537859661052133 19.000000000000000
5.056176195865907 -5.638190399549458 -1.565570923497486 11.000000000000000
6.650514756975094 -7.511300324922551 2.424190729598955 2.000000000000000
5.482843291381887 -6.165163214244117 1.179050049259336 38.000000000000000
5.514176458032473 -6.198888619898014 0.874913323244175 31.000000000000000
0.506381859524689 -0.568656941958622 0.063336799883293 0.000000000000000
5.706500106572426 -6.426458954874818 0.302660733025546 4.000000000000000
5.794736756103935 -6.509370583892270 0.219334408872540 7.000000000000000
5.791680456116397 -6.530378543703478 0.192230203839295 2.000000000000000
5.810790813976313 -6.528623705799610 0.164906953686641 7.000000000000000
5.797591788200862 -6.536118310750773 0.137220251767238 2.000000000000000
5.804028101022405 -6.518558783560550 0.110510762670177 17.000000000000000
5.810802386461274 -6.551883684405112 0.082292308898399 0.000000000000000
5.796842068588575 -6.509488927179305 0.057539612454737 16.000000000000000
5.775851284285560 -6.508283119945894 0.031707493144065 12.000000000000000
5.794615133638041 -6.506186577733445 0.004323170627602 14.000000000000000
5.776160871333422 -6.507042418408354 -0.022772613446786 11.000000000000000
5.771140975295472 -6.500393983000585 -0.075947746844048 5.000000000000000
5.740649757940007 -6.462328200173111 -0.125342214424777 16.000000000000000
5.722825212357185 -6.438641462526093 -0.177929652764996 19.000000000000000
5.742332636015000 -6.462306518362098 -0.233364429615237 6.000000000000000
5.736411706976208 -6.454736532110047 -0.285095242942935 9.000000000000000
5.735588476644832 -6.452021010526479 -0.339740359720769 13.000000000000000
5.724378178126596 -6.437667270843193 -0.390811411785114 11.000000000000000
5.720393839821483 -6.432469879416949 -0.442419104627630 18.000000000000000
5.726511571707530 -6.438236858766082 -0.498519220099465 21.000000000000000
5.742091566389002 -6.482139571923277 -0.530769866422747 0.000000000000000
5.725897086436639 -6.434418538298637 -0.711055428799154 19.000000000000000
5.722821717530570 -6.428010890890882 -0.870169784418800 19.000000000000000
5.747752207412482 -6.456077490490806 -1.038323575920810 21.000000000000000
5.748987291777240 -6.455347164359331 -1.172942823395506 24.000000000000000
5.485156635570489 -6.173419588960762 -1.436058863014128 16.000000000000000
5.031942097490427 -5.652244940416516 -1.564848987761707 11.000000000000000
0.230257120088657 -0.261593636994363 0.078540191676011 0.000000000000000
5.271617012988580 -5.996429668191340 1.158318184068258 27.000000000000000
5.488036271649264 -6.214448113001055 0.874434654999056 27.000000000000000
5.604544133238139 -6.352012791600636 0.462312507165904 35.000000000000000
5.626336218273398 -6.378487599797083 0.409825756945178 28.000000000000000
5.777599264335102 -6.533600134055575 -0.051637306667334 1.000000000000000
5.735778582661464 -6.504634387533237 -0.182859236602662 0.000000000000000
5.768824052951194 -6.529884611480888 -1.186479125515121 13.000000000000000
5.710818838708580 -6.455081322867038 -1.356631515489009 26.000000000000000
5.444383884618562 -6.170682338995789 -1.430218428994307 17.000000000000000
5.348790214722467 -6.049160553475389 -1.546667574435337 11.000000000000000
5.012496486362876 -5.672252416338182 -1.566145749426498 11.000000000000000
5.140883965624461 -5.885220136266781 1.581103644377413 11.000000000000000
6.170614811119844 -7.023464927657962 1.780161839192026 1.000000000000000
5.464346087650457 -6.233024887206206 0.874121704557282 28.000000000000000
0.496743963130474 -0.567592954130866 0.064632132161218 0.000000000000000
5.622103074424837 -6.398174300334389 0.435754925846843 33.000000000000000
5.708228098309961 -6.501921197335413 -1.364269925330996 21.000000000000000
5.428016834480797 -6.198255505259475 -1.433166771129271 20.000000000000000
5.315852006727132 -6.055092365064660 -1.543192645510542 11.000000000000000
4.992968475594772 -5.692202722119752 -1.567441171235120 11.000000000000000
5.101225721464544 -5.880754578277141 1.577220595496610 36.000000000000000
5.246225530678668 -6.011131505747620 1.157713117461528 28.000000000000000
5.467897415176195 -6.285975899468205 0.875613416167165 5.000000000000000
5.571905103150456 -6.412485265115393 0.619352448349215 20.000000000000000
5.597729538512477 -6.417221059412178 0.435433925496693 5.000000000000000
4.152620061197530 -4.787618510097630 -0.887140563986917 0.000000000000000
6.354084515008658 -7.310113110753662 -1.368828867726296 11.000000000000000
4.124154787505714 -4.748680772285198 -0.996559787876300 1.000000000000000
4.118402559763051 -4.739269686894090 -1.113504367432132 1.000000000000000
4.088021854594431 -4.697771950839119 -1.219005827497981 1.000000000000000
5.076295685101359 -5.894847942836428 1.576417361585447 36.000000000000000
5.223258665593452 -6.028867381597252 1.157413407987115 33.000000000000000
5.542311468875379 -6.399520531137576 0.592993680429997 8.000000000000000
7.821670656003533 -9.077476633411685 -1.390464426616036 7.000000000000000
7.025243186089122 -8.149592035790185 -1.403345501520196 9.000000000000000
6.321541847041280 -7.325551773162381 -1.367723438465967 12.000000000000000
4.114945898943624 -4.774911244011264 -1.000314627161145 3.000000000000000
4.066730165034711 -4.709823525452599 -1.100499022367512 2.000000000000000
4.083604880105637 -4.729922217959739 -1.225301643577861 2.000000000000000
6.221125412461303 -7.259181742963058 2.337581542082466 28.000000000000000
0.250191748286413 -0.291982741523228 0.062932836936212 0.000000000000000
0.495361962970032 -0.575793200149512 0.061905288102799 0.000000000000000
8.841516976803494 -10.332768162350980 0.142028662938505 34.000000000000000
8.860850864169462 -10.315282127558298 0.101427586248967 32.000000000000000
8.844384364039758 -10.330905868064022 0.059471917670940 37.000000000000000
8.852159951689439 -10.334995162033962 -0.023078814648235 37.000000000000000
8.845473051536663 -10.333557436453091 -0.106768460206023 35.000000000000000
8.859987533221886 -10.346315707096267 -0.190026637921474 35.000000000000000
8.876902891861118 -10.361526925402096 -0.273671760233299 36.000000000000000
8.870305410591742 -10.355050004079267 -0.439674167690715 30.000000000000000
8.898848042354102 -10.384713406774637 -0.525219574485686 36.000000000000000
8.885230062271738 -10.374958688645727 -0.608594947388540 36.000000000000000
8.892889588532087 -10.379074870419579 -0.691814682276079 31.000000000000000
8.887887077036508 -10.367152413766036 -0.773257667040029 31.000000000000000
8.903435921671052 -10.393424256248423 -0.860752986583326 33.000000000000000
8.892641734001945 -10.374724097128741 -0.941375034016021 28.000000000000000
8.899263874432561 -10.377151423594519 -1.024514175578050 33.000000000000000
7.780432461352889 -9.094924301826268 -1.389087205382078 10.000000000000000
4.136186620707841 -4.804656566466036 -0.888190376193243 20.000000000000000
6.301160269565463 -7.356278487035105 -1.370287771613162 15.000000000000000
4.012963352378697 -4.676987850292285 -1.086542450909018 2.000000000000000
5.250640265925663 -6.114879299771317 -1.545989651730558 11.000000000000000
4.004177700703967 -4.663423466789112 -1.199259403283871 1.000000000000000
4.836544663698545 -5.682747192173586 1.954481458679811 5.000000000000000
8.841766164172983 -10.403765558839631 0.223648096397141 32.000000000000000
8.849625929125477 -10.384688330041726 0.182104859124789 37.000000000000000
8.855386346838710 -10.386089387580135 0.099378210799255 33.000000000000000
8.851330374956991 -10.417285312118025 0.056615115750870 33.000000000000000
8.840572161938359 -10.362113876147319 0.017795504912686 32.000000000000000
8.861650164011092 -10.424474076961410 -0.026512161914037 31.000000000000000
8.864053298355385 -10.398404919094766 -0.067705900732017 35.000000000000000
8.862326305909999 -10.432401035573307 -0.111187736270399 36.000000000000000
8.868890715004637 -10.398753120899968 -0.151034568887284 35.000000000000000
8.861840234240356 -10.426470691552538 -0.193754649788064 33.000000000000000
8.850669182171423 -10.370611602414044 -0.231695294869462 38.000000000000000
8.868736848281115 -10.429251081129372 -0.276876712153932 34.000000000000000
8.860689161436788 -10.390167766103552 -0.316655705082811 40.000000000000000
8.868476146701903 -10.436003317257281 -0.361773628020694 36.000000000000000
8.874615310361433 -10.401820449956901 -0.400969102759477 37.000000000000000
8.869582069282325 -10.432067321057005 -0.444259702717873 34.000000000000000
8.863029959076073 -10.381870087092047 -0.481386080633987 33.000000000000000
8.893060695149053 -10.455572319066718 -0.529566508086685 36.000000000000000
8.881847374447522 -10.448897858225259 -0.613567966691160 34.000000000000000
8.880082420260415 -10.404561466671758 -0.651160613257570 34.000000000000000
8.894522905726793 -10.459209705669011 -0.697798795968149 30.000000000000000
8.885118634826098 -10.405413611691642 -0.733655282699740 35.000000000000000
8.897092346596432 -10.456526006804928 -0.780711224659542 32.000000000000000
8.888200014130799 -10.416467426283532 -0.819542941303750 37.000000000000000
8.897435734458876 -10.464246807684837 -0.866319196175899 37.000000000000000
8.892797540612115 -10.416344271989701 -0.902694768156494 36.000000000000000
8.891726303008181 -10.451664536215162 -0.948067862579722 29.000000000000000
8.884436380787767 -10.400553163196584 -0.982991621203352 33.000000000000000
8.895879411145332 -10.450964516335695 -1.031119972022292 35.000000000000000
8.881587135762269 -10.404197238991628 -1.068516487810167 34.000000000000000
8.885344494452866 -10.445124903467608 -1.115100472695271 30.000000000000000
8.900253618093071 -10.421537186621030 -1.153980253393770 31.000000000000000
8.770526469598064 -10.256789891114373 -1.376387684635285 7.000000000000000
4.148990503202192 -4.862600999675962 -0.757907042260565 0.000000000000000
4.124411405158307 -4.827885693757864 -0.890867485396950 55.000000000000000
6.287921009306800 -7.396226832420126 -1.375054247618261 15.000000000000000
3.968821914896616 -4.656258661671437 -1.076365557086675 2.000000000000000
3.922936682930106 -4.593339737094333 -1.172198354512452 1.000000000000000
3.793997893317797 -4.448576260819685 -1.717051217415875 2.000000000000000
4.812376777887179 -5.695933211378481 1.953488038972438 16.000000000000000
0.468139032857744 -0.552251232428333 0.072602380536745 0.000000000000000
0.492567370350984 -0.580491664409074 0.060528377424123 0.000000000000000
8.832037612339697 -10.433423260921174 0.264872199453686 36.000000000000000
8.853708546129377 -10.468096241603611 0.179978161196631 36.000000000000000
8.843400024000326 -10.412938058248599 0.139809948968569 34.000000000000000
8.862015683599724 -10.472603089829903 0.096733247511195 33.000000000000000
8.837344602992619 -10.436040368342709 0.015297348488504 29.000000000000000
8.855657602910373 -10.495410984143845 -0.029024162112882 32.000000000000000
8.858082467022356 -10.469329717049163 -0.070371546476280 37.000000000000000
8.860467479056879 -10.466546495804501 -0.153817451446548 35.000000000000000
8.858255902388136 -10.500522846504275 -0.197082271913185 36.000000000000000
8.849875607718820 -10.447649599688347 -0.235396738684514 36.000000000000000
8.875154548930533 -10.515773942909426 -0.281432556399558 33.000000000000000
8.864682611962477 -10.473514736515547 -0.321184432796149 42.000000000000000
8.873625745624265 -10.478941517348410 -0.405378617368877 36.000000000000000
8.870913246212819 -10.512333893871556 -0.449119158465363 33.000000000000000
8.854666516105318 -10.449552084733867 -0.485293953284776 36.000000000000000
8.901821323770415 -10.545223075618210 -0.535688573374065 38.000000000000000
8.858545764934506 -10.461766082574776 -0.571212658039215 39.000000000000000
8.887993950965855 -10.535413727021933 -0.619818858055100 35.000000000000000
8.891484260259343 -10.497194974943071 -0.658277761807549 31.000000000000000
8.883271509330703 -10.523912052570253 -0.702073977947583 31.000000000000000
8.884099289885793 -10.482443198313383 -0.739467905271650 36.000000000000000
8.888371035226708 -10.524314334962455 -0.785608393830400 32.000000000000000
8.891979250868374 -10.499750278837048 -0.826463613241590 36.000000000000000
8.900973114572276 -10.547609194557680 -0.873443611496868 33.000000000000000
8.894125667570140 -10.496483809824873 -0.909610621787035 33.000000000000000
8.892859488867231 -10.531843801862117 -0.955174945823085 31.000000000000000
8.880877726490510 -10.474385594526410 -0.989429532132247 37.000000000000000
8.902014894907685 -10.537309517922324 -1.039469936760627 33.000000000000000
8.877878813317183 -10.478044157666538 -1.075282717741628 36.000000000000000
8.886388255305910 -10.525230395182831 -1.122952477370151 30.000000000000000
8.886582748539098 -10.482996702767174 -1.159191472599172 29.000000000000000
8.725150757371914 -10.277515561800087 -1.375271586140723 10.000000000000000
4.101574689117622 -4.838791207936026 -0.749321110833521 0.000000000000000
4.121935556490961 -4.863618464129878 -0.896799008247839 17.000000000000000
3.917894021806886 -4.625951786658248 -1.063345564523404 1.000000000000000
3.874669351507661 -4.566159841583314 -1.159280706259559 1.000000000000000
3.774076016075131 -4.458221401994727 -1.715925903793421 1.000000000000000
0.220892226017261 -0.262354211169097 0.078506029866632 0.000000000000000
0.464062231589824 -0.553345825496329 0.072577050409932 0.000000000000000
0.480214992465479 -0.572271802167243 0.064526640326733 0.000000000000000
8.842760508269752 -10.537369379303939 0.428903955332921 35.000000000000000
8.832126021892462 -10.517784032512068 0.346074401267636 34.000000000000000
8.844561540847195 -10.491335290433476 0.304943387991313 35.000000000000000
8.840868858435405 -10.523138462043029 0.263004699359190 33.000000000000000
8.848341197967425 -10.490288390823721 0.221639473674722 31.000000000000000
8.862281799301876 -10.557932435724602 0.177657075061076 36.000000000000000
8.844827551665755 -10.493251157983764 0.137588624445434 34.000000000000000
8.858201677902551 -10.546769315548929 0.094560203177703 33.000000000000000
8.850300855353179 -10.494467379160227 0.054146973817252 34.000000000000000
8.841166648320522 -10.519478763350591 0.012370413436188 27.000000000000000
8.866620562928238 -10.559137547595029 -0.074035605681547 35.000000000000000
8.853697541550543 -10.500238436994927 -0.113831732925053 36.000000000000000
8.856644384382227 -10.540673318344119 -0.156980905552429 35.000000000000000
8.848647594511643 -10.524830501184496 -0.239100235530188 38.000000000000000
8.863233783143221 -10.550774355776504 -0.325242723526193 39.000000000000000
8.869750842100345 -10.516308607176214 -0.366259421746959 37.000000000000000
8.877167747979250 -10.562437260558596 -0.410311645332227 35.000000000000000
8.855869871284504 -10.529810855597013 -0.490336680973978 36.000000000000000
8.895187085724698 -10.616317222213198 -0.540040426632272 36.000000000000000
8.867005524525215 -10.551433524023480 -0.577556728438805 39.000000000000000
8.884982405961473 -10.568193773826508 -0.663084267583222 31.000000000000000
8.880166005453653 -10.556491228425379 -0.744929363601217 35.000000000000000
8.899086883926069 -10.617136802986842 -0.793433876826393 33.000000000000000
8.892804823541036 -10.580077367116296 -0.833009483993940 37.000000000000000
8.892521786518252 -10.573649624634335 -0.916128958907298 36.000000000000000
8.886123371468846 -10.602791262215298 -0.961047974632065 32.000000000000000
8.879384449906695 -10.551453106107225 -0.996293129995481 35.000000000000000
8.895291236087091 -10.608261811819602 -1.045644261521129 33.000000000000000
8.883647552169753 -10.564451321594944 -1.083839803444146 35.000000000000000
8.886975438658633 -10.605482762564499 -1.130806739933412 30.000000000000000
8.892367018986652 -10.569366202277948 -1.168164979394051 29.000000000000000
8.689604392514523 -10.310462968776037 -1.376311297287863 11.000000000000000
4.049670863097142 -4.808418746845938 -0.739260750015657 0.000000000000000
4.091143161336825 -4.861740478026270 -0.892964907598991 9.000000000000000
3.969852023063562 -4.735640681736655 -0.974832583001969 0.000000000000000
3.878800298885341 -4.610958089795155 -1.055053128334721 1.000000000000000
3.840473159716892 -4.557356325258084 -1.152424810991670 1.000000000000000
3.751892238556536 -4.464759229627631 -1.713457293619630 1.000000000000000
4.771025743736946 -5.731456130360783 1.953655953514887 3.000000000000000
8.834662322886135 -10.608888707119121 0.848340160512955 29.000000000000000
8.831182412864484 -10.606388920205994 0.679953061989311 35.000000000000000
8.836925020740820 -10.558982349059718 0.471626635969496 38.000000000000000
8.843477558593033 -10.617926986225164 0.427997544824411 37.000000000000000
8.839171771556728 -10.569400394293169 0.387006274285464 32.000000000000000
8.825541723820347 -10.588851420915113 0.344939742387668 34.000000000000000
8.845610671928634 -10.571772672536710 0.303475484223002 33.000000000000000
8.834314387924575 -10.594213986206917 0.261565736529775 34.000000000000000
8.841998787247386 -10.561318646293579 0.220046330887502 32.000000000000000
8.855492521257940 -10.629107266059556 0.175905836569780 38.000000000000000
8.840839122854710 -10.567433257266906 0.135578782076299 36.000000000000000
8.868822787998715 -10.639886660673604 0.091671458916827 31.000000000000000
8.848837048607249 -10.571757396026385 0.051676501783068 34.000000000000000
8.842033020200295 -10.599941605686922 0.009583078792538 32.000000000000000
8.864170200467322 -10.585231062655268 -0.032464165604920 30.000000000000000
8.862273201212878 -10.633440718883179 -0.076871615148240 36.000000000000000
8.862049186227287 -10.590091100534998 -0.117723661917577 33.000000000000000
8.859829215588434 -10.624319065927153 -0.160716491584273 33.000000000000000
8.864177762549188 -10.587198406213915 -0.201218817848747 34.000000000000000
8.846984755755917 -10.602134850347610 -0.242806382695669 37.000000000000000
8.866185513059586 -10.583698046318389 -0.284641517934559 31.000000000000000
8.868762186774227 -10.637565433915746 -0.330013700598791 38.000000000000000
8.873045127035519 -10.599889894239944 -0.370996705322890 37.000000000000000
8.872814818776062 -10.636691407217775 -0.414466053879321 34.000000000000000
8.869310198757205 -10.589600215616912 -0.453709575758733 32.000000000000000
8.846724915631844 -10.597688671345409 -0.494247913650477 36.000000000000000
8.862601193104041 -10.625631116135857 -0.582367356048663 43.000000000000000
8.891165368189352 -10.618983754202084 -0.625753985848488 37.000000000000000
8.885496816083464 -10.648669290196651 -0.668885275743154 32.000000000000000
8.893947991740205 -10.616767026137062 -0.709433405035584 32.000000000000000
8.883229073278473 -10.640027201931424 -0.751454733227477 32.000000000000000
8.893173056427031 -10.660547352668246 -0.839558048043798 36.000000000000000
8.894148230688630 -10.618647382546442 -0.879013762931234 34.000000000000000
8.897880263896496 -10.660311463694477 -0.923851837832553 34.000000000000000
8.879923032162360 -10.631765499899139 -1.003582810142019 35.000000000000000
8.898020643877960 -10.691792972007242 -1.053564530369438 34.000000000000000
8.879072044779866 -10.638545550949679 -1.090611221910028 36.000000000000000
8.890266971573290 -10.646557931849983 -1.175730407732423 29.000000000000000
8.661300745581411 -10.352626316364720 -1.378968227749921 11.000000000000000
4.016749754881505 -4.803026280615505 -0.735078815257146 0.000000000000000
3.929948966269169 -4.721896353202219 -0.850280193703258 0.000000000000000
3.911897222442459 -4.695502751704637 -0.960088391291622 0.000000000000000
