# This PCD file was generated using the MATLAB® pcwrite function
# from Computer Vision Toolbox®.
# .PCD v.7 - Point Cloud Data file format
VERSION .7
FIELDS x y z intensity
SIZE 8 8 8 8
TYPE F F F F
COUNT 1 1 1 1
WIDTH 640
HEIGHT 1
VIEWPOINT 0 0 0 1 0 0 0
POINTS 640
DATA ascii
5.071680763875969 10.503268269634688 -1.732364228563632 7.000000000000000
4.238949340128539 8.842072966802291 -1.700743802306570 6.000000000000000
3.026680500533947 6.270742055734502 -1.663758681731799 6.000000000000000
12.165942767711419 24.976819842189499 4.826378470574903 25.000000000000000
10.500776926906759 21.639461881256295 2.131057582278824 15.000000000000000
12.252774166767560 25.180407242580316 1.581600321655728 9.000000000000000
12.256257359144991 25.195137921275858 1.091405281312023 9.000000000000000
12.236621949912793 25.181892177541968 0.929138609763945 11.000000000000000
12.168737717075087 25.165148973155084 0.847739594046465 22.000000000000000
12.236433187094784 25.206866681862024 0.767426785525833 4.000000000000000
12.255903092554540 25.202072455053695 0.601993022750714 6.000000000000000
12.167744842311807 25.145352774509149 0.520507428411703 23.000000000000000
13.431799605357769 27.615147877488155 0.433329966184881 10.000000000000000
12.222937778518656 25.187106425731670 0.276852269179414 10.000000000000000
12.246405963299802 25.190765727804049 0.112218310438752 13.000000000000000
12.162938254172360 25.143341724247122 0.031103486729708 22.000000000000000
13.162511732302775 27.076937526771630 -0.093398665480365 12.000000000000000
12.219737214329855 25.188301309305217 -0.213630041298789 7.000000000000000
12.249012482946895 25.203734982385413 -0.377654408693138 10.000000000000000
12.173702242529544 25.172957812540034 -0.458710766233166 21.000000000000000
7.650857267493943 15.822197112271638 -0.403546728890369 1.000000000000000
7.678882170630187 15.817046475000168 -0.454442461696401 3.000000000000000
7.683924802826430 15.764714483986012 -0.503896539095389 12.000000000000000
12.235411221603467 25.183833079963691 -0.866716665929704 19.000000000000000
12.198248778624311 25.230227558642540 -0.950880010845905 5.000000000000000
7.681176852393398 15.815044993939779 -0.656926445526805 0.000000000000000
12.808722649957138 26.273586388997884 -1.185172216631975 18.000000000000000
7.678953434380993 15.821885649263791 -0.759746891844441 0.000000000000000
7.694270651673805 15.790269963716625 -0.810704219991508 26.000000000000000
11.697584361214281 24.099880755349957 -1.274262929133885 19.000000000000000
11.539774977058892 23.689278333515617 -1.323714574113080 16.000000000000000
7.667250019730729 15.791803470748007 -0.959598156258511 35.000000000000000
7.683739435171307 15.763412458937566 -1.010631411013736 46.000000000000000
7.658950587539055 15.786365738613171 -1.060990130609442 38.000000000000000
8.299400902851204 17.082034764461397 -1.522088616124302 11.000000000000000
7.349429117443486 15.171785682333621 -1.582818888022661 10.000000000000000
6.282856054940127 12.918866423743950 -1.726629427414234 7.000000000000000
5.620816360796833 11.598826875881940 -1.751805122333472 7.000000000000000
5.112286196406557 10.496611653904395 -1.734968845188160 7.000000000000000
4.273723237704723 8.838259059737339 -1.703693391788672 6.000000000000000
3.052456059964006 6.270883316834912 -1.667638440975265 6.000000000000000
12.070562674672855 24.570549517543867 4.761639713642272 22.000000000000000
10.557370594078140 21.567553428371383 2.127712353592289 16.000000000000000
13.469279492663016 27.406349195995432 1.679600904517143 29.000000000000000
13.328711762805412 27.132443916349501 1.137666213673000 17.000000000000000
13.457126037616847 27.523842286504262 1.058364417878917 14.000000000000000
13.468168229380147 27.442422492231572 0.968020844856422 29.000000000000000
13.377848922873628 27.392495544246799 0.878625176245213 1.000000000000000
13.669516179647445 27.876696277106504 0.795640151953873 17.000000000000000
13.676806223931070 28.027453823233657 0.705717442590415 32.000000000000000
13.747229099358858 27.981430063731111 0.612548921061864 26.000000000000000
13.505739089499434 27.630411312261430 0.521606244581772 45.000000000000000
13.786835077508417 28.091675096961922 0.431214162622634 24.000000000000000
0.616847978300485 1.257470439589852 0.015922432630007 0.000000000000000
13.397786217662320 27.337662109812030 0.256204038435988 6.000000000000000
13.311633755543811 27.296374147244791 0.167866021739053 3.000000000000000
13.302383874428381 27.096379090579887 0.080814277919681 31.000000000000000
13.228903403157823 27.079821405363006 -0.007301992351105 14.000000000000000
13.364263141304196 27.249910164678681 -0.099044189761299 8.000000000000000
13.377548921968456 27.408481016861870 -0.190902748817091 27.000000000000000
15.304317242918032 31.189074432010813 -0.388698492639444 236.000000000000000
13.809690859933239 28.313910082678689 -0.397426442680684 2.000000000000000
15.297086299164395 31.114092310820297 -0.589651559810285 23.000000000000000
7.723394626702815 15.761145496005639 -0.351036660119046 8.000000000000000
7.695850119718862 15.778129507616597 -0.402939481717634 13.000000000000000
7.722061889008440 15.769325112396643 -0.453558309058723 11.000000000000000
7.737673412573655 15.738401907570264 -0.504339939862818 26.000000000000000
7.704658340911656 15.745000912239746 -0.553234044224362 14.000000000000000
13.540587433197860 27.591912605594544 -1.002810842556792 28.000000000000000
7.720711401559099 15.760207424031151 -0.655224500168275 5.000000000000000
7.707014567774341 15.805284613501371 -0.709581327107952 3.000000000000000
7.725719824193029 15.781324283868415 -0.759024592250937 6.000000000000000
7.749881524705881 15.767488160484262 -0.811451617389975 22.000000000000000
7.712882597699305 15.766206959662256 -0.859200958620220 40.000000000000000
7.749121284175415 15.777094600945603 -0.914534993208777 34.000000000000000
7.720999525975891 15.765552494393305 -0.960039436263016 45.000000000000000
7.748154965339625 15.758460786642885 -1.013173903879687 37.000000000000000
7.723420096996459 15.781514964177191 -1.063598889013018 31.000000000000000
7.727639186807817 15.794649568245148 -1.370078536559782 14.000000000000000
7.386819140904208 15.118251973569159 -1.579243870339880 10.000000000000000
6.335481184051707 12.915091647543505 -1.730120108164588 6.000000000000000
5.661713607628769 11.583247380167066 -1.752831295982151 7.000000000000000
5.147566604655042 10.479312645053952 -1.735260321629481 7.000000000000000
4.303222039071055 8.823896114522952 -1.703935251753491 5.000000000000000
3.069486309159365 6.254049496942528 -1.665334234666924 4.000000000000000
12.139336309393919 24.497102118826476 4.755343725125083 19.000000000000000
10.570617383561363 21.409923556451815 2.117801156661441 23.000000000000000
13.569069096142174 27.370486991468056 1.679284831100384 26.000000000000000
13.398794903492330 27.039911337370256 1.135788918258813 15.000000000000000
13.392810634791330 27.158916693604993 1.051063169368801 6.000000000000000
13.802971428299177 27.874919024170509 0.975473981071935 40.000000000000000
13.515087892333554 27.432123380729720 0.879041959716077 37.000000000000000
13.647396512846671 27.593376829297981 0.792327669675708 41.000000000000000
13.784138496458050 28.001637968365358 0.705076763535556 34.000000000000000
13.920764975591267 28.087592303083241 0.612360069752506 25.000000000000000
13.851159345455018 28.084672712624695 0.521164519572784 24.000000000000000
0.618761489476417 1.248390164087127 0.019135232088525 0.000000000000000
0.619923076665721 1.255912025451238 0.015895986920536 0.000000000000000
13.522397507321086 27.352139792018818 0.254866979986768 2.000000000000000
13.352189468852231 27.142948903848961 0.168423484130138 4.000000000000000
13.372285997323216 27.003926963602595 0.080776296273627 21.000000000000000
0.636684385388071 1.292011944582754 -0.002009074983059 0.000000000000000
13.490320280534617 27.268063079424806 -0.101263881360186 18.000000000000000
13.486198071483663 27.390846805439750 -0.192415932077461 25.000000000000000
15.397565720010668 31.107474396895682 -0.388764825322448 255.000000000000000
13.467089512070004 27.382072431518566 -0.369764732865058 0.000000000000000
13.505208896839385 27.277065363741528 -0.455883567286269 6.000000000000000
7.778872703403874 15.738258913615667 -0.351679271988734 10.000000000000000
7.731643811621259 15.716105565613404 -0.401285669654791 11.000000000000000
7.761397351429478 15.714355271701905 -0.452233243689980 8.000000000000000
7.803971594784075 15.736840673989349 -0.506418781528809 1.000000000000000
7.756559107020352 15.715056024162962 -0.553434887578134 15.000000000000000
7.805903984478959 15.751612780419308 -0.609554851540787 13.000000000000000
7.765358032060347 15.715964552507288 -0.654328593896269 5.000000000000000
7.742907099379536 15.743248319938886 -0.707226065015959 4.000000000000000
7.772292250915800 15.740607755532579 -0.758304061795272 3.000000000000000
7.837885478686355 15.808543446600751 -0.817662782048326 18.000000000000000
7.779207161338974 15.764721203079233 -0.861848055823898 22.000000000000000
7.822735597522980 15.789682618618031 -0.918575786306221 30.000000000000000
7.780051404932574 15.749785456747858 -0.961498210184560 40.000000000000000
7.791535379086088 15.783500684750749 -1.066933959730646 28.000000000000000
7.777833361916587 15.761074666339866 -1.369662162408019 1.000000000000000
7.431074628530844 15.078799221023687 -1.577669251393593 11.000000000000000
6.382777420411584 12.900551582906502 -1.731736360257370 6.000000000000000
5.704351792780664 11.571047061993355 -1.754565376132859 7.000000000000000
5.193529025508535 10.482845722630003 -1.740186508138251 7.000000000000000
4.337999695322726 8.819826876182404 -1.706889503682546 6.000000000000000
3.091735731416550 6.247273839018490 -1.666742491085842 3.000000000000000
11.832394697875195 23.683398893507317 4.618540095077404 11.000000000000000
10.640578791749672 21.366370847247495 2.116641676885904 21.000000000000000
13.648891142917732 27.295046592721661 1.677252274702414 26.000000000000000
13.511771257710226 27.032826372950780 1.135942253968509 31.000000000000000
13.675371997896704 27.487592410274004 1.057963466603013 21.000000000000000
13.841235908108757 27.712966507395890 0.972707332233414 27.000000000000000
13.609602572507614 27.385390105689865 0.878254322903186 31.000000000000000
13.778558851178067 27.617585946302967 0.792291492394351 31.000000000000000
13.702859797213224 27.600143101791218 0.701677993372878 62.000000000000000
0.614156650599420 1.230444127246486 0.027247756297412 0.000000000000000
13.839871888252075 27.822439433188336 0.520217373929433 47.000000000000000
13.622757734480151 27.289205998406231 0.431454105129815 12.000000000000000
13.547736259813480 27.270896239205882 0.342421612327263 2.000000000000000
13.598588281152869 27.269683489762258 0.254406116327407 6.000000000000000
14.068774022989819 28.336984028890470 0.152172094923983 31.000000000000000
13.485066126566762 26.996946365610100 0.079376272976075 13.000000000000000
13.503296493257245 27.163053011584552 -0.012202938219458 10.000000000000000
13.582376192325254 27.217833849550516 -0.101968279944044 12.000000000000000
13.614649765734274 27.412092733707070 -0.194948725100107 7.000000000000000
13.556019109345236 27.324795192707569 -0.370204886473994 10.000000000000000
13.608062293977575 27.248206296327908 -0.457304873030137 7.000000000000000
7.819750162802330 15.686708919474057 -0.350741508514335 14.000000000000000
7.783372412639290 15.686064492839265 -0.401521446146078 14.000000000000000
7.827641929803225 15.712685087715315 -0.454230475992514 1.000000000000000
15.522104054345945 31.097991824446751 -0.999199065136260 5.000000000000000
7.835500856640244 15.738303822528309 -0.557306745303684 1.000000000000000
7.842438257158430 15.735579840887098 -0.658262307554035 2.000000000000000
7.807359868533918 15.738082709242235 -0.709352533300055 2.000000000000000
7.874816109574637 15.809969966686396 -0.766623241254935 0.000000000000000
7.913553730081545 15.824311404867089 -0.821756928983444 5.000000000000000
7.856459162422806 15.784281935043083 -0.866387616477285 24.000000000000000
7.891090341350234 15.791278858460856 -0.921641330189513 3.000000000000000
7.860816733857098 15.776393127875053 -0.967019819493840 29.000000000000000
7.830658917738821 15.788776817849268 -1.019221370074133 28.000000000000000
7.877835904340095 15.820717922116771 -1.073888083793778 14.000000000000000
8.461246492114217 16.971214530075201 -1.520519944682390 11.000000000000000
7.478741351969086 15.046309250516231 -1.577097440218600 11.000000000000000
6.435454964130145 12.896374965962536 -1.735234438164369 6.000000000000000
5.750561307673963 11.565683827407739 -1.757713105813076 7.000000000000000
5.228755506112993 10.465261740245793 -1.740482955100900 7.000000000000000
4.371007198921598 8.812163351117647 -1.708942484508707 6.000000000000000
3.113968761451994 6.240392643049020 -1.668152142116125 5.000000000000000
11.831250812067653 23.480741357869505 4.589270180612262 13.000000000000000
10.694021921155480 21.290609286088724 2.113017998501715 20.000000000000000
13.777474600232985 27.315470693874389 1.679411164179048 28.000000000000000
13.866920733638226 27.498887551387000 1.147342800932261 24.000000000000000
13.913251234425735 27.721922739412591 1.062937044672477 27.000000000000000
13.978521587710974 27.747031583568173 0.973310128704101 27.000000000000000
13.843379843353697 27.612940464749130 0.881279991987675 23.000000000000000
13.955449878955230 27.730311903250552 0.793192917438887 22.000000000000000
0.614984981984365 1.225947097528163 0.028854829388849 0.000000000000000
14.044866148790094 27.855596471747603 0.610204247557569 32.000000000000000
13.701849408087858 27.314598781295970 0.519122476897497 5.000000000000000
13.621739893402090 27.184819990731981 0.341866039980501 5.000000000000000
13.788737947365098 27.411561415885387 0.251869458314158 49.000000000000000
0.640925801547089 1.273555435814458 0.004411374391445 0.000000000000000
13.643438716477009 27.078545694084454 0.076549880430725 11.000000000000000
13.594959392384810 27.112800124819515 -0.012919911923456 6.000000000000000
13.739650993786293 27.295563378679063 -0.105569910910274 8.000000000000000
13.660172434301034 27.268732948034739 -0.193257006050922 19.000000000000000
13.726700671003440 27.298201925180990 -0.282857019304542 8.000000000000000
15.576358175747549 31.080049030534951 -0.494084543132657 8.000000000000000
7.907908465949491 15.727419077286470 -0.354954802939155 3.000000000000000
7.873227257596810 15.730487900233427 -0.406167616042066 2.000000000000000
15.569222706055619 31.040613441569334 -0.899327882757249 6.000000000000000
15.625682184774250 31.037112499739209 -0.999757683389144 3.000000000000000
12.318526679338790 24.455970807638494 -1.240141193347213 19.000000000000000
11.704032106165196 23.215763116760399 -1.301767770075699 15.000000000000000
7.918151532341917 15.756554926941135 -0.968149185251091 5.000000000000000
7.915279983318298 15.822229728518522 -1.025624742472216 7.000000000000000
9.775782140255435 19.383166208381354 -1.440515198306796 4.000000000000000
8.520930509176855 16.945725683711771 -1.521440041933490 12.000000000000000
7.526266881049361 15.013655933284014 -1.576528246061393 11.000000000000000
6.479097510977773 12.874442135213926 -1.735603842550775 7.000000000000000
5.791372031946509 11.549646875572591 -1.758747735762281 8.000000000000000
5.271178796877358 10.461471744039443 -1.743870538040319 6.000000000000000
4.433381632554782 8.789555221269779 -1.711247283341345 7.000000000000000
3.137980902480273 6.236809163147967 -1.670800508952110 6.000000000000000
11.825205115482699 23.271353752500900 4.558762715241289 14.000000000000000
10.745234942159575 21.211191320067698 2.109119269820392 25.000000000000000
12.892170532086711 25.386227896401081 1.931130298727235 4.000000000000000
14.047734057866450 27.617991061465844 1.150508835081933 46.000000000000000
14.014212129500359 27.684447075647228 1.062347932020351 33.000000000000000
14.107056490589818 27.762685555357621 0.973596387446069 32.000000000000000
13.960397662427225 27.607782367520429 0.881066730662673 26.000000000000000
13.992508651568089 27.568201495249426 0.791169179688413 29.000000000000000
14.093123854265835 27.714565358258980 0.609026725572522 22.000000000000000
13.812306993653630 27.299218820503427 0.518346190632089 7.000000000000000
14.107000820128295 27.770857899504691 0.428312936233402 22.000000000000000
14.025238323754492 27.742994800275184 0.337439327012281 35.000000000000000
14.268844684150169 28.114566722389654 0.244101889615115 49.000000000000000
14.152891446142004 28.022037581801698 0.153256342100154 27.000000000000000
14.302612157205704 28.130014859610867 0.058191708729598 32.000000000000000
14.235558632083501 28.133486735347049 -0.034324346957634 3.000000000000000
14.091535947906499 27.749483370069797 -0.117708673427507 17.000000000000000
13.963571272003982 27.630874396419543 -0.204650234917577 30.000000000000000
15.791902677185426 31.088659672830687 -0.395633819881813 1.000000000000000
14.353571673603463 28.423439906435860 -0.410509598004782 0.000000000000000
15.649027969046655 31.014584431800657 -0.594506609425328 16.000000000000000
15.711262400725104 31.022018756764098 -0.699853362352595 5.000000000000000
15.782643413167186 31.046672956458366 -0.802576375601957 5.000000000000000
15.696234186647953 31.025830737805208 -0.902027110591314 6.000000000000000
15.739971828130075 30.997213356265618 -1.001367803518226 7.000000000000000
14.196826311463155 28.125216251790619 -0.953016769766825 1.000000000000000
13.386512018235205 26.395174664755160 -1.122398423227990 26.000000000000000
12.629417324108188 24.946483285881641 -1.193854912605316 18.000000000000000
12.369674165741491 24.349559446071652 -1.236239635171994 20.000000000000000
11.943449056736043 23.572250848351629 -1.253288147547207 18.000000000000000
11.807465971690004 23.221460413183166 -1.306090744815522 16.000000000000000
11.460733306983490 22.655913876031761 -1.331941599843565 18.000000000000000
10.906776704092342 21.597036489708543 -1.384852558567379 20.000000000000000
10.556643331735126 20.836184156351749 -1.389732760112521 28.000000000000000
10.108083299581651 19.937501254619647 -1.435899571302950 6.000000000000000
8.567730214797518 16.895296825182641 -1.519345389874822 11.000000000000000
7.571826890822950 14.977330008246327 -1.575461326648883 12.000000000000000
6.531801085961623 12.869867767145990 -1.739108774491221 7.000000000000000
5.830315779902356 11.529972417801403 -1.759079256012324 8.000000000000000
5.306325193278383 10.443614566288829 -1.744171506215936 7.000000000000000
4.464522854629966 8.778057577543009 -1.712402501789607 6.000000000000000
3.161999494117329 6.233124324465265 -1.673450625434364 6.000000000000000
7.785318296447742 15.187731517191963 3.137090338445474 0.000000000000000
10.818100382762301 21.174166420711956 2.108495593730618 23.000000000000000
13.928344343678095 27.377944310852143 1.683423524113271 24.000000000000000
14.095273432869982 27.599807490814740 1.604797476568095 22.000000000000000
14.098538600898383 27.614663729229378 1.061095395283521 21.000000000000000
14.154784741536602 27.621596377931837 0.971187386507620 23.000000000000000
14.162975533302891 27.665380137869462 0.791898499945584 20.000000000000000
14.396615120434920 28.249724848308460 0.705032364353582 36.000000000000000
0.625219305810272 1.228693893400674 0.025534700499519 0.000000000000000
14.058793574346055 27.546350077016641 0.517711044471006 24.000000000000000
14.160260462286823 27.640406330713759 0.427713520374036 35.000000000000000
0.637340998502467 1.250905033999942 0.014127636694475 0.000000000000000
14.352831794106667 28.040322539464995 0.243501699623906 50.000000000000000
14.165144022406089 27.809545128295852 0.154495290647153 28.000000000000000
14.320133720782739 27.927901823362546 0.059809730226563 32.000000000000000
14.214858771826215 27.856867104213038 -0.030748111722300 32.000000000000000
14.212850060156095 27.750437648011456 -0.119657058429811 22.000000000000000
14.187109480473516 27.831309786285885 -0.211922374776669 29.000000000000000
7.688924859260742 14.997345142591058 -0.173690482521494 0.000000000000000
14.372735923686868 28.220949778340483 -0.406374120732803 11.000000000000000
15.786991090422795 31.020809893464659 -0.597584711879686 5.000000000000000
15.842007208730640 31.013768601908708 -0.702582677135101 3.000000000000000
7.688045313699015 14.991344309061418 -0.368433808263186 2.000000000000000
15.850820394341774 31.063811838394855 -0.907177938132744 6.000000000000000
7.674716763308002 14.974641332357621 -0.465028603474450 4.000000000000000
14.471210318124703 28.420638792478954 -0.971915255403023 0.000000000000000
14.140417881542531 27.599130404956910 -1.020474421006635 42.000000000000000
13.565062367223241 26.616033865559089 -1.052448531560444 26.000000000000000
7.685255274547581 14.990630896369709 -0.660404123047336 3.000000000000000
7.657240497419279 15.003722666605256 -0.708170020743111 0.000000000000000
7.667429243909401 14.965355579313552 -0.756305064573519 6.000000000000000
12.037172598723528 23.555811552747329 -1.255859121200466 20.000000000000000
11.841025773047322 23.092248029730655 -1.299767160599731 16.000000000000000
11.496206306164654 22.534918974146237 -1.325897948323259 18.000000000000000
7.680090599483393 14.985399395834264 -0.951998777223053 4.000000000000000
7.653574536452239 15.001306835179648 -0.999668298595213 2.000000000000000
10.385995312588417 20.381408900331564 -1.413658135322335 16.000000000000000
10.196517499123983 19.941585156625678 -1.440339302733126 7.000000000000000
7.665969311568837 15.029547568546917 -1.295136722591614 3.000000000000000
7.609873031075582 14.926799953203897 -1.572395317340040 13.000000000000000
6.577186386572405 12.851096274024698 -1.740110605502543 7.000000000000000
5.874687380613848 11.520612049183711 -1.761529790670623 8.000000000000000
5.352444207129444 10.446428530600159 -1.749109411463762 7.000000000000000
4.499308629157441 8.773338615321620 -1.715367781496711 7.000000000000000
3.184212008891614 6.225999287492400 -1.674864749738030 5.000000000000000
7.837236374426131 15.161070244900444 3.136641111357744 1.000000000000000
7.703800516290717 14.932062607184733 1.630298183942609 0.000000000000000
14.044772342872299 27.372307127680344 1.684476677610884 23.000000000000000
14.465682200273685 28.190305473098164 1.164464518497284 27.000000000000000
14.221393682489675 27.619076752222668 1.061365274550204 32.000000000000000
14.220247818853364 27.515942214051208 0.969387775413514 27.000000000000000
7.697332764931907 14.938361124118970 0.461283889085918 2.000000000000000
14.373202666678198 27.836160076558656 0.793401091344596 39.000000000000000
14.322341862250656 27.869895764933901 0.701794320105589 37.000000000000000
7.706901135597232 14.908384144380406 0.315159848808951 7.000000000000000
0.632531199836171 1.232975393018933 0.022240445916485 0.000000000000000
14.238744742011180 27.559521389266422 0.426976272802719 19.000000000000000
7.706943764249288 14.961259136805793 0.168377378345133 3.000000000000000
7.723839507629753 14.935893847477018 0.119521073801252 7.000000000000000
7.695076661909615 14.947604567695834 0.071709395363880 1.000000000000000
14.349412357487020 27.750826627252323 0.061031037355886 38.000000000000000
14.381010294263122 27.942450347841728 -0.034195173221295 28.000000000000000
14.343608422194203 27.768596212953369 -0.122017190484376 24.000000000000000
7.699220308444448 14.951214880681249 -0.123336305328945 6.000000000000000
7.711953269827989 14.918039401307155 -0.171686579909148 10.000000000000000
7.708928600096635 14.978565106202709 -0.221376354439351 1.000000000000000
16.030231484630281 31.228655984531684 -0.607943918807403 5.000000000000000
15.980273084079426 31.019163246877753 -0.705879538006530 4.000000000000000
7.712856596172230 14.915613789956168 -0.365932064923611 8.000000000000000
7.698431049036381 14.954313149158423 -0.415246598178524 6.000000000000000
7.707019725532849 14.913070561161703 -0.463135129036907 10.000000000000000
7.688720854819195 14.944488023340853 -0.511611367901691 7.000000000000000
14.264977134489531 27.606844669947293 -1.024469216788752 42.000000000000000
7.707643397193085 14.967035612765869 -0.609852919914218 5.000000000000000
7.706345042899271 14.907906694096638 -0.656357597704119 9.000000000000000
7.687821482232912 14.938689566531693 -0.705400358605318 8.000000000000000
7.694115300950923 14.893285095112248 -0.752796948735922 11.000000000000000
12.112410522587831 23.503655826535635 -1.255752035379560 18.000000000000000
7.690694282168631 14.895951459814356 -0.850540264232103 11.000000000000000
7.706602542270161 14.969656144819965 -0.901794484616064 5.000000000000000
7.701193878258709 14.902769059230408 -0.946831912010297 9.000000000000000
7.682307330263217 14.932818785772938 -0.995768206253682 8.000000000000000
10.437225160829120 20.310325535657540 -1.410874093029773 15.000000000000000
7.683706313000314 14.939981066801337 -1.287813683961012 8.000000000000000
7.653202584059807 14.886711340753024 -1.570832498799336 15.000000000000000
6.626220025560899 12.839123937040199 -1.742368410890895 7.000000000000000
5.919059863061540 11.511058543322392 -1.763983300209179 8.000000000000000
5.391236118807541 10.435206279444870 -1.750960634013603 7.000000000000000
4.528563375413774 8.758187564755005 -1.715623287572478 7.000000000000000
3.206408585008701 6.218784089569667 -1.676280456282734 6.000000000000000
7.801592948855445 14.970374072132088 3.107011069888066 9.000000000000000
7.730333127350818 14.859894089112231 1.626308706465582 8.000000000000000
7.759192186853665 14.914448651651298 1.141473217948150 6.000000000000000
7.753857875898031 14.909034146355381 0.849056371277440 6.000000000000000
7.747975790756573 14.902574211523699 0.557685789451958 7.000000000000000
7.744274301569868 14.961376033540759 0.509240365640683 3.000000000000000
7.736940812991334 14.890807911072599 0.460900241536775 8.000000000000000
7.725836117224243 14.935270994781817 0.411930350884857 5.000000000000000
7.729646865263316 14.885858704558501 0.364083288985402 7.000000000000000
14.449050551072000 27.932016940122622 0.608598571393672 49.000000000000000
7.750956296057509 14.913019655608096 0.266082565269726 7.000000000000000
7.731832040501501 14.942644987556406 0.216598057813102 4.000000000000000
7.733467849884097 14.888964101825550 0.168984350213732 10.000000000000000
7.746461482656352 14.856538766857284 0.120465498172383 14.000000000000000
7.727252699608168 14.885952944140683 0.072306926428442 9.000000000000000
14.394445512470389 27.605707017040245 0.061740000019062 21.000000000000000
7.749636092860538 14.915143470443311 -0.025447673887528 8.000000000000000
7.724475948621199 14.933387342583771 -0.075227191654562 6.000000000000000
7.725711225795417 14.878970487851561 -0.121810805251035 11.000000000000000
7.743928960732171 14.856377551834797 -0.170498857593723 12.000000000000000
7.720589096543973 14.878061593909152 -0.218153483845806 8.000000000000000
16.186052540800969 31.265201494513576 -0.612197447051151 5.000000000000000
7.753402009189649 14.926809961116092 -0.317889638373557 7.000000000000000
7.756058326927938 14.875117820633278 -0.365534644835605 16.000000000000000
7.724940849429601 14.882103642436121 -0.412805582995638 11.000000000000000
7.754024063140051 14.879643038361053 -0.463112540164412 19.000000000000000
7.726507347654107 14.893481868863134 -0.510340259463409 12.000000000000000
14.010989199260347 26.896896659834283 -0.988200250702898 33.000000000000000
7.734135063219942 14.894856737669329 -0.606803064526245 11.000000000000000
7.751393243438948 14.870969440970413 -0.655959694052363 17.000000000000000
7.727403666992038 14.891226180889163 -0.704090956055288 12.000000000000000
7.744792585019567 14.866940075579720 -0.753241289591534 19.000000000000000
7.720682383033232 14.887078640923320 -0.800619008766119 13.000000000000000
7.739547861854162 14.866107884171868 -0.850657909176576 19.000000000000000
7.731251750884250 14.894019321263642 -0.897495308584477 10.000000000000000
7.744339096154097 14.862349132347433 -0.945872865656317 16.000000000000000
7.727478171899267 14.895950795297111 -0.995125126155078 13.000000000000000
7.721432522714849 14.889076939485804 -1.285235915818151 13.000000000000000
7.701925635181636 14.856993010333667 -1.570772788997631 16.000000000000000
6.669652333312696 12.816521265936842 -1.742749496855793 7.000000000000000
5.965292768841744 11.504827056081609 -1.767145640349264 8.000000000000000
5.444915725184727 10.451472105781761 -1.758996224131063 8.000000000000000
4.561484383041535 8.749780932218457 -1.717688740867807 7.000000000000000
3.230427652702739 6.214828985721383 -1.678935253296212 6.000000000000000
7.760900862725739 14.880223219917880 3.975813937497260 1.000000000000000
0.579367506846814 1.101865001545534 0.197832370899600 0.000000000000000
7.777233209826269 14.826392634431230 1.625317400016269 14.000000000000000
7.789155311655128 14.849158609508223 1.139324353638988 10.000000000000000
7.781884814269271 14.840217889775602 0.847602125254073 11.000000000000000
7.777858252871169 14.837292275372306 0.557092959488730 12.000000000000000
7.761254456156228 14.871378137039201 0.508765477070827 8.000000000000000
7.783873811971429 14.857268154501440 0.460474051428074 16.000000000000000
7.752227609257264 14.862956128655171 0.411769134970442 10.000000000000000
7.765268098734588 14.831191451356545 0.363904917805635 12.000000000000000
14.642424112945593 28.065907267314245 0.608462519624696 14.000000000000000
7.777077323471431 14.840684580530436 0.266382463068892 12.000000000000000
7.760059876683320 14.873857556910409 0.216983629349954 10.000000000000000
7.770923541026527 14.837821251666554 0.169104834562232 17.000000000000000
7.789476230013119 14.815933527766859 0.120389315284330 18.000000000000000
7.766642308680208 14.838346466797276 0.072486215433764 16.000000000000000
7.796183644027787 14.837147462422038 0.022792216543642 13.000000000000000
7.789009313269510 14.867482954648537 -0.025125715107130 13.000000000000000
7.754553966546290 14.868160938001338 -0.074132985612020 10.000000000000000
7.768794125363002 14.838435403238762 -0.121650149962924 20.000000000000000
7.790721598853349 14.822831011536920 -0.170619086335805 14.000000000000000
7.761830831218996 14.834016280319460 -0.217725822890412 16.000000000000000
7.790925488296842 14.831775212721567 -0.268320103494472 10.000000000000000
7.779575953146366 14.854511334233990 -0.315754110356568 12.000000000000000
7.797172138588937 14.830965665446357 -0.364928592095799 11.000000000000000
7.768025211750667 14.841578777346271 -0.412363111495450 18.000000000000000
7.802776932416383 14.849577429382222 -0.463326318669077 9.000000000000000
7.771568115690173 14.856475092393865 -0.510051101269464 17.000000000000000
7.800255790267065 14.853748963056859 -0.561079427790443 10.000000000000000
7.779093058096930 14.857826042532324 -0.606441938221699 19.000000000000000
7.803843926865326 14.847929238997992 -0.656686775605160 11.000000000000000
7.774282794489794 14.857738837074777 -0.703952535333873 16.000000000000000
7.795376264713007 14.840424320658855 -0.753688558749033 9.000000000000000
7.761947297135725 14.843071321821725 -0.799488764696588 15.000000000000000
7.797715095627419 14.853634202082574 -0.852414484170467 10.000000000000000
7.778082697332772 14.860522348996611 -0.897262700048556 18.000000000000000
7.802407795666104 14.849853794962456 -0.947722249064580 9.000000000000000
7.772481154196111 14.858962214330603 -0.994484811065443 13.000000000000000
7.773918315804788 14.866149775103153 -1.286113049474039 11.000000000000000
7.744909145148679 14.816633911276412 -1.569214301274462 13.000000000000000
6.716755822272718 12.800721930234076 -1.744386912232623 7.000000000000000
6.015287197684972 11.505333631129488 -1.771723244422342 7.000000000000000
5.483768484602559 10.439908448727806 -1.760853048514431 9.000000000000000
4.590652163839812 8.734411794830862 -1.717947896704149 7.000000000000000
3.247057219779672 6.197447531366564 -1.676639954524491 6.000000000000000
7.791367436706729 14.815750169488084 3.966293272763652 8.000000000000000
0.579530824027742 1.093132133137729 0.200272723959847 0.000000000000000
7.823990426548073 14.792751255129104 1.624323699047996 12.000000000000000
7.834002220982669 14.811951537945760 1.138411962679798 17.000000000000000
7.828586650340807 14.806539805840288 0.846986176292194 16.000000000000000
7.826439243811132 14.807141927525109 0.556631747752544 15.000000000000000
7.809983210014234 14.841274104217419 0.508316994850011 15.000000000000000
7.832568086920837 14.827099807992468 0.460035251053764 10.000000000000000
7.795277407917047 14.822327301633152 0.411409613370269 18.000000000000000
7.813911864292681 14.801084589932614 0.363489663077851 14.000000000000000
7.847694784895861 14.807584439865849 0.314087499677360 8.000000000000000
7.827559815293473 14.814061003991213 0.265934603513187 16.000000000000000
7.801185575483843 14.829669744723887 0.216883503682610 16.000000000000000
7.830953332076867 14.828802840489146 0.168251151857707 11.000000000000000
7.857106110348271 14.820892737225307 0.119103243359223 9.000000000000000
7.820998076752191 14.818792876384876 0.071828445540733 13.000000000000000
7.854376146214846 14.824515958216054 0.021875766808471 7.000000000000000
7.828139516342011 14.819721229979208 -0.024805506050529 16.000000000000000
7.801341316601120 14.834561982759681 -0.074299358563931 20.000000000000000
7.830702621707744 14.832925602207411 -0.123008470091927 9.000000000000000
7.860250531287836 14.831277727789242 -0.172704407282694 9.000000000000000
7.814250621934601 14.810955874467794 -0.218349289512827 12.000000000000000
7.866212333439933 14.850770155732732 -0.271201205344560 6.000000000000000
7.833876697875398 14.834900122460468 -0.316599586510360 19.000000000000000
7.870494161973687 14.846383371220639 -0.367906094486814 8.000000000000000
7.829914786488882 14.836056244711045 -0.414144081931789 9.000000000000000
7.876171234274235 14.864981171737455 -0.466585149853497 7.000000000000000
7.825945051588151 14.836892329786494 -0.510991123956732 9.000000000000000
7.875571375508981 14.872670735430688 -0.564876230020882 5.000000000000000
7.833384359967105 14.838211062171027 -0.607427625886825 11.000000000000000
7.877177633280074 14.863282863687957 -0.660507640356476 7.000000000000000
7.834298879344119 14.848664063674121 -0.705862407904654 9.000000000000000
7.874394050644081 14.866321517143675 -0.758702189509266 6.000000000000000
7.829514748971806 14.848075715405201 -0.802775877298753 9.000000000000000
7.878669968246339 14.883018546029334 -0.858104885159481 5.000000000000000
7.832360787002711 14.840904184928206 -0.898388555688343 10.000000000000000
7.866184617181069 14.847648776062329 -0.950628497852416 6.000000000000000
7.841938911521105 14.867393402997266 -0.998554608353435 7.000000000000000
7.839565557358332 14.867517426497301 -1.290015561981160 8.000000000000000
7.787700541490903 14.776150257249824 -1.567657968832652 12.000000000000000
6.771382259831126 12.798632458916046 -1.748535616371774 7.000000000000000
6.063470281155068 11.502163177385057 -1.775598254953529 7.000000000000000
5.520714516374030 10.424750880434246 -1.761939534029242 8.000000000000000
4.627303652858845 8.732585212563066 -1.721826267696392 7.000000000000000
3.269181452191724 6.189996534549678 -1.678059535713262 6.000000000000000
7.834553598982580 14.775306971332000 3.962544827103904 13.000000000000000
0.593890375995539 1.115163542373253 0.191586492865208 0.000000000000000
7.887827565565644 14.790467244508307 1.625778933177628 7.000000000000000
7.899779805531481 14.813154028366455 1.139197450092267 9.000000000000000
7.892414584445111 14.804272895641262 0.847122267680438 8.000000000000000
7.890250678117440 14.804886349357801 0.556273370242211 8.000000000000000
7.852857098917550 14.800473539522017 0.507861275500274 10.000000000000000
7.904139760513288 14.838901084939536 0.459469616349302 6.000000000000000
7.847680004604184 14.799151055010270 0.410937303067224 9.000000000000000
7.873922178328112 14.791879732835184 0.362869513237787 8.000000000000000
7.930800949632324 14.840362454775416 0.312856703514716 1.000000000000000
7.891372195488943 14.811798613939644 0.265081142018596 9.000000000000000
7.853558815251303 14.806475721273273 0.216364485607971 10.000000000000000
7.896757311155792 14.830073298852113 0.167149855088934 6.000000000000000
7.879134089389456 14.806045771456809 0.070958447959036 8.000000000000000
7.929832243605968 14.843221313664046 0.019907232088278 0.000000000000000
7.893862344089102 14.820956891392754 -0.026281764312368 8.000000000000000
7.859439531375516 14.821892740059809 -0.075309794520146 9.000000000000000
7.906062356352809 14.851731251297622 -0.125433797594454 6.000000000000000
7.943361517586504 14.863959272791050 -0.175940238354046 2.000000000000000
7.878070019019326 14.808753322470665 -0.220025825100240 7.000000000000000
7.884300749948645 14.808046285839012 -0.317050022963472 10.000000000000000
7.907153961040265 14.858335283886376 -0.417707149078795 5.000000000000000
7.897458563030740 14.848648115378765 -0.514142864350823 4.000000000000000
7.908667083090104 14.856901245629018 -0.611376175064245 7.000000000000000
7.950708107238603 14.878297133712621 -0.664334281698963 0.000000000000000
7.913437325167831 14.874377232023292 -0.710700300477641 3.000000000000000
7.912458243006379 14.880790417786073 -0.808591321085080 3.000000000000000
7.907596186754527 14.859540643772561 -0.903247488480593 6.000000000000000
7.951089191721893 14.883612480645041 -0.957400892610454 0.000000000000000
7.922983977525826 14.896511074858196 -1.004802928813733 2.000000000000000
7.931947217229080 14.917495705744543 -1.299968390355673 1.000000000000000
7.837892605086442 14.749486888301774 -1.568107311289522 12.000000000000000
6.812764178088651 12.772059332463556 -1.748297776231907 7.000000000000000
6.102231371110579 11.481536676070590 -1.775945882406459 7.000000000000000
5.559515946323675 10.412894127183336 -1.763801506138065 9.000000000000000
4.656407119453541 8.716963578659019 -1.722088970138198 7.000000000000000
3.291289032441436 6.182463207005824 -1.679480543707283 6.000000000000000
7.886953068372253 14.751907731649595 3.962917366646670 9.000000000000000
0.567134232935122 1.056970312533863 0.212602054583670 0.000000000000000
7.969517387704820 14.821095045087063 1.140286245350062 2.000000000000000
7.967901914838384 14.822765108892114 0.847754812252841 1.000000000000000
7.967653310064619 14.826904033078975 0.556000772898171 1.000000000000000
7.934011977431582 14.829694961824970 0.507428621337764 7.000000000000000
7.926913439885838 14.824901185865869 0.410150201230019 5.000000000000000
7.959002237896643 14.828008407204933 0.361804287523620 1.000000000000000
7.978423573548199 14.851328515396162 0.263529778757094 2.000000000000000
7.927011935769134 14.821657768602506 0.215076413235730 6.000000000000000
7.930620891073341 14.836070209395771 0.117532920080871 3.000000000000000
7.971259346479123 14.842948767052917 -0.028533396919475 1.000000000000000
7.927149218737803 14.826530561258537 -0.077025488875821 5.000000000000000
7.940039909316969 14.802788723832990 -0.221532134675124 0.000000000000000
7.969317333114780 14.844036714188960 -0.321085226665563 3.000000000000000
7.947853616041272 14.868471034598130 -0.371311207115813 0.000000000000000
12.689974525653280 23.564530621400706 -1.206122382665261 18.000000000000000
11.364598897596508 21.127218369083195 -1.306048798295857 19.000000000000000
10.803464456111545 20.118068543952219 -1.351210230399442 21.000000000000000
8.928468545924835 16.612088606026035 -1.513812276782160 10.000000000000000
7.874616846031518 14.698297546241093 -1.565052770344318 11.000000000000000
6.859778391163391 12.755725760088382 -1.749944372883988 9.000000000000000
6.148542443999604 11.474559668331167 -1.779120963374066 7.000000000000000
5.596387811940198 10.397439269793594 -1.764892069244065 9.000000000000000
4.691177817776183 8.711451820909218 -1.725067806420694 7.000000000000000
3.315264596305169 6.178159747649829 -1.682141132416322 6.000000000000000
8.024461152922417 14.882490519892031 4.000388080381838 5.000000000000000
0.596686582364921 1.100463678061502 0.195219921793959 0.000000000000000
11.212696543115550 20.705148846122000 2.088217001745891 26.000000000000000
13.689148579101941 25.206796588425377 1.935677906553114 13.000000000000000
14.579042796400511 26.856182755152417 -0.112970505099359 3.000000000000000
15.205728608453670 28.022714879467017 -0.325011071218104 21.000000000000000
14.957188916706007 27.705330637617678 -0.958876838403136 23.000000000000000
14.188654065912962 26.163114382997790 -1.138121374352931 27.000000000000000
13.980138762628391 25.900432965354682 -1.206413298773924 10.000000000000000
12.724668444496787 23.436794770658111 -1.200681568695154 20.000000000000000
12.434051355305559 22.958381296589835 -1.237697534082671 16.000000000000000
11.981362693955500 22.056480978689905 -1.244794619032672 18.000000000000000
11.404223463487925 21.028648333387025 -1.301533386540285 22.000000000000000
11.138484657921364 20.638891770433446 -1.331349297228294 33.000000000000000
10.889668025000855 20.112275101321643 -1.354788228475404 20.000000000000000
10.579189893282051 19.595183520134739 -1.366392306078503 19.000000000000000
10.360161324111141 19.212388720171774 -1.456026972701882 10.000000000000000
8.986987530918821 16.584912527980492 -1.514760975309440 9.000000000000000
7.916843440401543 14.657446152121949 -1.563502651438544 12.000000000000000
6.908681817075462 12.742638830461161 -1.752220643167552 8.000000000000000
6.191037672789892 11.460482469576462 -1.780886026382254 6.000000000000000
5.633213600943487 10.381868070994244 -1.765985647220590 9.000000000000000
4.724042147275415 8.702413246776374 -1.727143868667672 7.000000000000000
3.335454465284073 6.167157243739922 -1.682326695559458 6.000000000000000
8.256314786546508 15.179832437670910 4.078239484575558 8.000000000000000
0.601625887408794 1.101880963778825 0.193949677545554 0.000000000000000
11.301218840866527 20.697888203164439 2.090015167080075 26.000000000000000
13.818589707738759 25.236296843198986 1.939316702440123 9.000000000000000
14.856857808161973 27.210967954167657 1.598505780837205 22.000000000000000
14.773155033537563 27.068267927499605 1.051352925189109 24.000000000000000
14.597449921096258 26.776162092183270 0.868206871646387 25.000000000000000
14.614319707397044 26.711409820590490 0.779314813807173 32.000000000000000
14.540899479836769 26.699945283107880 0.689994402945611 1.000000000000000
15.526941575164447 28.439688097324222 0.511431228890193 23.000000000000000
14.778959650150451 26.990931842716876 0.421706094902226 5.000000000000000
15.548043035058400 28.505890704824509 0.322140868626127 28.000000000000000
15.147838171361670 27.682625835748837 0.236162858824791 10.000000000000000
15.063926401195749 27.656864208971157 0.144465205559170 20.000000000000000
14.694448013403060 26.943113514115836 -0.027347799418883 63.000000000000000
15.148689769540171 27.666019831615429 -0.133847702032595 35.000000000000000
15.308314285190862 28.080473046618025 -0.236021816192799 34.000000000000000
15.329348243906608 28.019055546011387 -0.327366278138166 27.000000000000000
15.257477741729923 28.016729829325399 -0.420014214402366 25.000000000000000
15.198410490869255 27.863405616682471 -0.601752652764627 2.000000000000000
15.220523472557607 27.804280699603339 -0.692050123766364 0.000000000000000
16.846865592912621 30.987671249782338 -0.826980491946240 4.000000000000000
16.892976804769329 30.960528137106863 -0.930968653027844 4.000000000000000
15.050633697697307 27.650066714854347 -0.959564450152820 23.000000000000000
14.588299064710119 26.646704658305339 -0.995756931623583 34.000000000000000
14.321303005081695 26.284362571017809 -1.062076430068470 28.000000000000000
14.315362477282651 26.180405541856842 -1.143175139876119 26.000000000000000
13.113070781311324 24.033156766653846 -1.164796409294047 22.000000000000000
12.778004673253287 23.343992428258133 -1.197816807604378 19.000000000000000
12.495308901413468 22.884044787065946 -1.235996003445830 16.000000000000000
12.014218247901121 21.938450844052937 -1.239302941465628 16.000000000000000
11.489816843256513 21.013723330134340 -1.304328763494851 19.000000000000000
11.243927802120334 20.663301180132407 -1.337680240127272 22.000000000000000
10.948863911304684 20.057329467133329 -1.353783568655208 21.000000000000000
10.609403230100881 19.492531028687836 -1.360558000227554 18.000000000000000
10.379488237337853 19.093093833301012 -1.447928744917063 16.000000000000000
9.031848719896850 16.533194474213730 -1.512687128144451 10.000000000000000
7.958876773728094 14.616447201409798 -1.561953924194623 12.000000000000000
6.945951345442801 12.708721035248260 -1.750735628232450 11.000000000000000
6.239295382857631 11.456574764216754 -1.784773589652670 6.000000000000000
5.669994750583444 10.366164847613859 -1.767081359106941 10.000000000000000
4.756897161479409 8.693252605921657 -1.729222178435514 7.000000000000000
3.357509033210564 6.159369678673016 -1.683752095868337 6.000000000000000
8.390668485852444 15.298246847649551 4.113206177877608 10.000000000000000
11.854728598935360 21.486008737237313 4.306101793731274 13.000000000000000
11.391773893684444 20.693712444934349 2.092080380400735 22.000000000000000
15.163177768552490 27.638173552904931 1.707101202276425 10.000000000000000
15.052799031665558 27.448356288929673 1.149639316019749 30.000000000000000
14.950108362508892 27.167331147289246 1.053580437443498 46.000000000000000
14.802312454703600 27.024782167254969 0.961064682535764 16.000000000000000
15.750388898673110 28.630001645990006 0.893721974036943 0.000000000000000
15.297566356656198 27.718777343965797 0.789573457445913 48.000000000000000
14.980873733493507 27.275353162673511 0.693597311034309 95.000000000000000
14.970713761497482 27.309296844580928 0.601618354886489 4.000000000000000
14.814435736511310 26.932623840610901 0.510097444967248 2.000000000000000
14.807398446489179 26.824573935047610 0.421198298753269 26.000000000000000
14.883418023938242 27.082143517753281 0.330043991519321 3.000000000000000
15.241223814697536 27.626702176279224 0.235311746473700 36.000000000000000
15.095052822886748 27.489365759531253 0.145099082048022 18.000000000000000
14.794623256927855 27.001246793715055 0.061607791963988 37.000000000000000
15.192177949978340 27.618866632888626 -0.042727347571643 34.000000000000000
15.362199561463681 27.950611268116361 -0.234864032198446 24.000000000000000
15.453121592864020 28.014862831239881 -0.329730591427282 31.000000000000000
15.274324217679553 27.820627402813997 -0.416122869721732 22.000000000000000
15.264397421088553 27.855565688171239 -0.508315584634831 23.000000000000000
15.381830090376479 27.967932738447303 -0.608961444610493 9.000000000000000
15.277169111712837 27.681794827832462 -0.689893309343194 4.000000000000000
17.048237573145247 30.989298860608642 -0.936052411889665 4.000000000000000
15.151633155538599 27.608453406340473 -0.961006508448357 45.000000000000000
14.613508585746223 26.477715100990622 -0.989833668969797 27.000000000000000
14.413565552159540 26.238315829848020 -1.063121368886607 28.000000000000000
14.383898785908316 26.092514742844671 -1.141559464013210 24.000000000000000
13.164466512462225 23.932071284638241 -1.161629124320791 21.000000000000000
12.864003022649314 23.310309786972567 -1.199335992232014 19.000000000000000
12.556195327217200 22.809557483226243 -1.234296782839048 17.000000000000000
11.721411919336115 21.336023368196351 -1.262110383037824 20.000000000000000
11.536429336853923 20.928877108109830 -1.301036328504055 21.000000000000000
11.273894011541666 20.551410277048490 -1.331702563448572 27.000000000000000
11.000014105382187 19.988290020359287 -1.351470196172887 18.000000000000000
10.685728421407465 19.473384883551418 -1.362869903852265 18.000000000000000
