# This PCD file was generated using the MATLAB® pcwrite function
# from Computer Vision Toolbox®.
# .PCD v.7 - Point Cloud Data file format
VERSION .7
FIELDS x y z intensity
SIZE 8 8 8 8
TYPE F F F F
COUNT 1 1 1 1
WIDTH 637
HEIGHT 1
VIEWPOINT 0 0 0 1 0 0 0
POINTS 637
DATA ascii
9.228703178805240 -11.458739769188306 0.174783524052899 2.000000000000000
9.187898308723232 -11.365122894406333 0.135025072911669 7.000000000000000
9.177368004014685 -11.392888415404968 0.088988909481543 4.000000000000000
9.204079477792023 -11.383162517937095 0.044095384389668 5.000000000000000
9.222197324218694 -11.448882663052672 -0.003917945879447 10.000000000000000
9.163932162805809 -11.327456898560243 -0.043615292623494 8.000000000000000
9.201592320470153 -11.418755372334530 -0.093061488996293 7.000000000000000
9.116761801325781 -11.267108324250685 -0.128079415136516 9.000000000000000
9.110708784193751 -11.300636035988539 -0.174863528981162 7.000000000000000
9.165839301550111 -11.328578546882738 -0.221812525813864 5.000000000000000
9.185952448619400 -11.397048738230104 -0.270651157240218 8.000000000000000
9.175644501268023 -11.338452276536856 -0.312078075709850 8.000000000000000
9.190981087313240 -11.400457545995295 -0.361136035999666 7.000000000000000
9.180803378040729 -11.346801189994338 -0.400457874634657 8.000000000000000
9.188604574772635 -11.398799797105575 -0.449681644112192 8.000000000000000
9.199853401264269 -11.368806967366005 -0.492905615055522 9.000000000000000
9.195214358572938 -11.404867942564870 -0.540272656349083 8.000000000000000
9.225866050311856 -11.442080059643985 -0.634133886140962 8.000000000000000
9.215252499815080 -11.429916774627813 -0.722196957094547 8.000000000000000
9.223310825704317 -11.437649659800833 -0.813423715351461 8.000000000000000
9.231247788142996 -11.444758644653994 -0.904694128301192 8.000000000000000
9.205253276118038 -11.412379663534331 -0.990107861671233 7.000000000000000
9.217150847217669 -11.425167851024213 -1.082183301423640 8.000000000000000
9.197195990911418 -11.440728968764006 -1.125910699713763 7.000000000000000
9.202426705370426 -11.402570013346072 -1.169285149619481 8.000000000000000
9.156065015286057 -11.388337946300041 -1.208613570776022 14.000000000000000
9.156352618358754 -11.343703208258326 -1.250230504268316 15.000000000000000
9.164986790048028 -11.396823521184437 -1.299652199710249 15.000000000000000
7.801292393701756 -9.665596532837590 -1.497487454293760 13.000000000000000
7.048039153342164 -8.730172786616073 -1.522910206271846 10.000000000000000
6.444872772702836 -7.983778514100280 -1.518107033158329 11.000000000000000
5.932816207229832 -7.349257482232225 -1.573232799511223 9.000000000000000
5.512977439241537 -6.831970273718973 -1.600692546069518 9.000000000000000
5.152901296813944 -6.389269139646480 -1.628018588332298 11.000000000000000
4.874245135929634 -6.052668147307081 -1.669467113982575 9.000000000000000
9.782681835295694 -12.197956622611137 3.443985465283133 14.000000000000000
9.120598176752047 -11.399332081581832 2.451268901148613 33.000000000000000
8.937695250992792 -11.144119249135393 1.626385165668669 8.000000000000000
9.200976010576953 -11.479490521817205 0.850566485214090 7.000000000000000
9.266740679375223 -11.565358845960077 0.672736054278112 0.000000000000000
9.268799070857121 -11.561200194908999 0.489419372009057 1.000000000000000
9.277940946255782 -11.615913012395566 0.443740822945035 1.000000000000000
9.278824275170921 -11.576932755616355 0.400732661296350 1.000000000000000
9.266039332785493 -11.602305015816185 0.354809713607526 1.000000000000000
9.233303122155196 -11.513003632748493 0.310384706738142 0.000000000000000
9.258796757877780 -11.589437057321959 0.263380153201819 1.000000000000000
9.252372390636838 -11.535100774117367 0.219032390672031 1.000000000000000
9.263895556584359 -11.552769423793158 0.129720689916247 0.000000000000000
9.269903746558857 -11.603002366969200 0.082320102715342 1.000000000000000
9.289790012517495 -11.583516265360082 0.037132939332608 1.000000000000000
9.240007642245686 -11.560100014572008 -0.007751769402199 10.000000000000000
9.235471579504717 -11.508439385290139 -0.050959476959540 9.000000000000000
9.200309971681026 -11.504355561385594 -0.096223381592935 7.000000000000000
9.106261600532401 -11.339644114705983 -0.130746153837282 7.000000000000000
9.109671078552390 -11.385951281960317 -0.178414226843405 6.000000000000000
9.172069598179867 -11.423547382233451 -0.226145982829284 5.000000000000000
9.179827551390760 -11.476191814305174 -0.274197796521588 8.000000000000000
9.174665770737045 -11.423860833916294 -0.316235117620570 7.000000000000000
9.199356240340924 -11.498707900323332 -0.366415982034373 6.000000000000000
9.196487493531883 -11.454545227303001 -0.406684154569867 8.000000000000000
9.206410772372152 -11.509826510699725 -0.456453868918639 7.000000000000000
9.217940757122976 -11.479733061066021 -0.499970708905616 8.000000000000000
9.201043783995365 -11.499904184253722 -0.546256850529790 8.000000000000000
9.176208638236345 -11.421476022204686 -0.584703735090962 9.000000000000000
9.224409626643022 -11.527640510946519 -0.639697496147750 8.000000000000000
9.185015967963283 -11.434983810500917 -0.675252896041266 9.000000000000000
9.223268490279338 -11.528194249969467 -0.729440448697143 7.000000000000000
9.217526595611583 -11.474799055865631 -0.770032752039696 8.000000000000000
9.226553841743618 -11.529510385389166 -0.820470469987328 8.000000000000000
9.208601249697290 -11.460106040141618 -0.858435345918513 8.000000000000000
9.222506646379845 -11.520722184074458 -0.910342705014461 8.000000000000000
9.206792555240348 -11.459716657857406 -0.947989689363981 7.000000000000000
9.206053888748926 -11.500974583149954 -0.997644733998814 7.000000000000000
9.204652154159826 -11.453515113661709 -1.037852143132561 8.000000000000000
9.213159907232521 -11.507378302805790 -1.089311788621782 7.000000000000000
9.193766128670198 -11.478350958197190 -1.175911369858284 9.000000000000000
9.154913031896411 -11.428844936239358 -1.258559239209786 15.000000000000000
7.767389536601049 -9.695270409183941 -1.498495558951364 13.000000000000000
7.022085663459441 -8.763559404094842 -1.525311646400749 10.000000000000000
6.416808079285797 -8.008738109702243 -1.519171377289102 11.000000000000000
5.904630570572465 -7.369271017664587 -1.573532509674586 10.000000000000000
5.484301369683831 -6.847366811113233 -1.600087143580330 9.000000000000000
5.130339772725219 -6.409713289899521 -1.629227134696829 12.000000000000000
4.855090905465936 -6.075270850736544 -1.671739676270249 9.000000000000000
9.725986751311700 -12.215651407659138 3.439913914192729 13.000000000000000
9.121298589457082 -11.487595492977398 2.459971241136747 38.000000000000000
8.862924892227818 -11.129916047441611 1.621718503768988 22.000000000000000
9.213714512325982 -11.584437278889631 0.852159071254671 6.000000000000000
9.276698121401454 -11.667375743377811 0.673200943567555 6.000000000000000
9.278946913351886 -11.663157169892166 0.488836220461083 3.000000000000000
9.249425311078829 -11.666772209272104 0.443167352633660 6.000000000000000
9.267136766033442 -11.650187242721749 0.399893085530833 5.000000000000000
9.269952572458406 -11.650034124285483 0.308200409200071 2.000000000000000
9.254283228810099 -11.672244615584425 0.261886009701471 9.000000000000000
9.279428489223005 -11.659353141091252 0.216366138312706 3.000000000000000
9.244619056671148 -11.655929208231406 0.170158147059109 7.000000000000000
9.273879281090439 -11.654739554907096 0.127074275947367 3.000000000000000
9.253274786111925 -11.669851473480826 0.080628200673756 7.000000000000000
9.270920728571017 -11.647177360315645 0.035433147676868 7.000000000000000
9.240367845410544 -11.649214110493133 -0.010647693069016 10.000000000000000
9.231341491930090 -11.591056202795471 -0.053773013441131 9.000000000000000
9.196138199636662 -11.586895227731219 -0.099228689908679 7.000000000000000
9.107358142317702 -11.428234086976396 -0.134261203849235 8.000000000000000
9.110538412865459 -11.474602755317967 -0.182148305603728 6.000000000000000
9.177742243974805 -11.518708872522630 -0.230482087196368 5.000000000000000
9.185236429594998 -11.571439890411121 -0.278774739842436 8.000000000000000
9.173197255783766 -11.509407679334778 -0.320394101416207 7.000000000000000
9.197562574779601 -11.584389146771997 -0.370781713021804 7.000000000000000
9.201934222390543 -11.549774525064954 -0.411953953057970 7.000000000000000
9.197227050190554 -11.585971777143797 -0.460455016686033 7.000000000000000
9.213768954401674 -11.562221624917719 -0.504663952797389 8.000000000000000
9.201527299733355 -11.588765031763941 -0.551693279721212 7.000000000000000
9.186697954626124 -11.522896737122487 -0.591496678917443 8.000000000000000
9.215277713244308 -11.603769418419809 -0.644363652239082 9.000000000000000
9.190469323265969 -11.530086535533094 -0.681931677706841 8.000000000000000
9.218753013877709 -11.610719240976572 -0.735073445762685 8.000000000000000
9.215711985958238 -11.560398340241726 -0.776185240004933 9.000000000000000
9.217306068884559 -11.605621909604132 -0.825789421985815 8.000000000000000
9.209290429289744 -11.548800042276284 -0.865344939116141 8.000000000000000
9.225302392627965 -11.612696136162455 -0.917842548886577 7.000000000000000
9.200122478312931 -11.538873127061393 -0.954168701160121 6.000000000000000
9.206342045144881 -11.589723326224245 -1.005183729126372 8.000000000000000
9.205234187462272 -11.542154004727884 -1.045598238496460 8.000000000000000
9.208701923818326 -11.589726986857400 -1.096443525696781 8.000000000000000
9.200266948471366 -11.532455961395847 -1.134505432786576 8.000000000000000
9.194236597761709 -11.566930670659119 -1.184298581469411 11.000000000000000
9.147183848658878 -11.464050523347900 -1.215387219887929 15.000000000000000
9.152984997496921 -11.514121308603293 -1.266889870362536 17.000000000000000
9.163290344973854 -11.482033780245146 -1.308176278982688 16.000000000000000
7.733369035599345 -9.724847187350107 -1.499502535917832 13.000000000000000
6.993640535340450 -8.793710018291875 -1.527030575972684 10.000000000000000
6.393288618650894 -8.039948918040594 -1.521710797847190 11.000000000000000
5.878676577269112 -7.392348915884099 -1.574647567513535 9.000000000000000
5.462432786061796 -6.872141087298402 -1.602130480460698 9.000000000000000
5.112221679083270 -6.436398136087227 -1.632332891334985 12.000000000000000
4.838076592363046 -6.100987731892936 -1.675026034060000 10.000000000000000
9.369819380459226 -11.832917309394347 3.345124394879544 28.000000000000000
9.119122242090555 -11.572817996209764 2.468162852470521 34.000000000000000
8.819322876896640 -11.156918762201954 1.620967384778079 25.000000000000000
9.302298518760367 -11.792217040901541 0.856612806914758 1.000000000000000
9.276496252342879 -11.756779564223017 0.673492617288220 1.000000000000000
9.245418061493604 -11.707640211426870 0.488343287530031 2.000000000000000
9.269381804408511 -11.742755955046803 0.398882957711743 1.000000000000000
9.259014559606877 -11.681961519578316 0.353736147638000 8.000000000000000
9.229233473346886 -11.684862763400162 0.307676681329581 4.000000000000000
9.231540292223320 -11.684608935972655 0.216045469309214 3.000000000000000
9.254588713617894 -11.718450527101616 0.125611975814531 1.000000000000000
9.282796057875842 -11.752507250118427 0.032137955064551 2.000000000000000
9.233919649370844 -11.683396087812291 -0.057027932292770 9.000000000000000
9.179559244883182 -11.653526932541006 -0.101442061414959 7.000000000000000
9.100777414210420 -11.507360188516557 -0.137269642698428 7.000000000000000
9.110891485155404 -11.563411616544826 -0.185884732170414 5.000000000000000
9.178077357640175 -11.607645638782458 -0.234433072166840 6.000000000000000
9.182932929639216 -11.657257183259539 -0.282737555939830 8.000000000000000
9.164065041952080 -11.585493328935094 -0.323903054484459 8.000000000000000
9.202435747035070 -11.679812899312111 -0.375837521855700 6.000000000000000
9.197276079121357 -11.632383677760586 -0.416265763504633 7.000000000000000
9.201908727271670 -11.681424007883848 -0.465971647875296 7.000000000000000
9.211516382149957 -11.648017626371811 -0.509622285863727 8.000000000000000
9.196732083737697 -11.671372798990156 -0.556579589212370 8.000000000000000
9.184641390199028 -11.608558194884374 -0.596854433651011 8.000000000000000
9.195364483687456 -11.625377956018006 -0.688613161855900 8.000000000000000
9.223285504423549 -11.706158002933954 -0.741999216417012 8.000000000000000
9.215792123211410 -11.649316230620848 -0.782673304469784 8.000000000000000
9.229054980601747 -11.710579804345201 -0.834227819044333 7.000000000000000
9.209466682391531 -11.637647788954908 -0.872256657498078 8.000000000000000
9.222800561010239 -11.698453046910409 -0.924604445805084 7.000000000000000
9.197768729729841 -11.624515137168849 -0.961110608212207 6.000000000000000
9.210869153679562 -11.685010314048938 -1.013510602750017 7.000000000000000
9.205303773712760 -11.630935118585086 -1.053345764358242 8.000000000000000
9.208528973136145 -11.678571233636937 -1.104409916701884 7.000000000000000
9.198039062740577 -11.617981492471444 -1.142246843480166 7.000000000000000
9.179931693329074 -11.636541214155471 -1.190047342401328 11.000000000000000
9.152144973575707 -11.558958452159622 -1.224865608751324 15.000000000000000
9.152938914956618 -11.602721518310858 -1.275685087350867 15.000000000000000
9.156348994245675 -11.561009339566915 -1.315753407529547 15.000000000000000
7.696887483253103 -9.751127148621983 -1.499895270399112 11.000000000000000
6.965065904990571 -8.823777017251246 -1.528748168879938 10.000000000000000
6.362689867811513 -8.061564985455831 -1.522034185664633 10.000000000000000
5.854919817782092 -7.418524082274963 -1.576578398629815 9.000000000000000
5.438180058942074 -6.893678618965794 -1.603288812628321 9.000000000000000
5.091722346526304 -6.459881717059247 -1.634488902655678 13.000000000000000
9.255825411563061 -11.770100914063249 3.323220617717213 22.000000000000000
9.114102157386196 -11.654985790144892 2.475842985059638 33.000000000000000
8.811196356532815 -11.231885921531102 1.624726258902842 25.000000000000000
9.306290792912568 -11.888253307824144 0.857926526433637 1.000000000000000
9.273402057752994 -11.843110213891578 0.673739893185820 1.000000000000000
9.256939890274234 -11.813096209790061 0.487750977795715 1.000000000000000
9.266041346338161 -11.778547709153891 0.442271288025345 1.000000000000000
9.261575292753074 -11.822629892640428 0.397984069980493 1.000000000000000
9.251540642111186 -11.761724451727098 0.352661156581382 0.000000000000000
9.262160367628727 -11.819210941061876 0.305536962062482 1.000000000000000
9.273163641611573 -11.787266723373868 0.259749951548311 2.000000000000000
9.269330284514155 -11.825336717541035 0.212993614936640 1.000000000000000
9.268422910210926 -11.777283344858837 0.167225406471208 1.000000000000000
9.263496935104232 -11.820754627450384 0.122960935044113 1.000000000000000
9.245825445403925 -11.749569169793787 0.078491850551117 0.000000000000000
9.279766256651206 -11.838798366332426 0.029576081406124 1.000000000000000
9.240213637687347 -11.738477833587204 -0.013545831622465 10.000000000000000
9.226435614078055 -11.763060064983897 -0.059698315855047 9.000000000000000
9.105635273088394 -11.602653178236309 -0.141128170367330 8.000000000000000
9.113103095698857 -11.655564377653278 -0.189803373812750 5.000000000000000
9.177898843121737 -11.696736029932552 -0.238386871340401 6.000000000000000
9.178306626390194 -11.693739479138387 -0.329587343601784 8.000000000000000
9.194875264914879 -11.759356173894211 -0.379747590055423 6.000000000000000
9.199274440959112 -11.724737381025200 -0.421300017494203 7.000000000000000
9.215900929224036 -11.743577932196203 -0.515375743810947 8.000000000000000
9.200952742835696 -11.766935885062047 -0.562572476400409 7.000000000000000
9.184470129363691 -11.697560009685859 -0.602501840861713 8.000000000000000
9.214720796648418 -11.781921518105413 -0.656098715085125 9.000000000000000
9.190208620338531 -11.708028106169991 -0.694054155572925 9.000000000000000
9.215418193130104 -11.785719396833429 -0.747311344744073 8.000000000000000
9.212983836399683 -11.735189723855555 -0.788829628527470 8.000000000000000
9.221226048522583 -11.790135044915424 -0.839896647641065 7.000000000000000
9.204379384227378 -11.720249325313745 -0.878454301659524 8.000000000000000
9.226916195931890 -11.793935273397729 -0.932478274549281 7.000000000000000
9.192553294743334 -11.707090291464802 -0.967673500475772 6.000000000000000
9.200648049282155 -11.761246813328228 -1.019480349038585 7.000000000000000
9.204859805650312 -11.719873737875687 -1.061096066576545 7.000000000000000
9.205476644666144 -11.764365094894856 -1.111961715201682 7.000000000000000
9.192948914815121 -11.700447937860858 -1.149562123874584 8.000000000000000
9.186541518035444 -11.734947227876432 -1.199757898266363 12.000000000000000
9.144717501132106 -11.638081625486180 -1.232092986088217 16.000000000000000
9.157102370410499 -11.697839181640326 -1.285406407603263 15.000000000000000
9.137129088916078 -11.624141574502175 -1.320961620239643 12.000000000000000
7.667314916465592 -9.786850550950355 -1.502123836504778 11.000000000000000
6.934045382085245 -8.850569273927306 -1.529782723884400 11.000000000000000
6.327413642508396 -8.076694917833990 -1.520878895455954 12.000000000000000
5.828767305552748 -7.441437164114198 -1.577690491799027 9.000000000000000
5.418362718539963 -6.921502275406056 -1.606213798008452 10.000000000000000
5.071116693221508 -6.483308779582757 -1.636644039614349 13.000000000000000
4.814238362062900 -6.117185962304497 -1.675268888329808 10.000000000000000
9.219465858199486 -11.811179125080308 3.324891673112027 53.000000000000000
8.805009553532997 -11.310153917500642 1.628784572045164 24.000000000000000
9.271844734048459 -11.932900666049328 0.857809704711898 6.000000000000000
9.274544823716218 -11.936023736935283 0.674069915215995 5.000000000000000
9.253609439134221 -11.899454593412770 0.487187843235306 4.000000000000000
9.274853547831290 -11.880925795388528 0.441423615428012 1.000000000000000
9.265154284870325 -11.918717921752751 0.396941165095734 5.000000000000000
9.264978807850671 -11.870539945986188 0.351223622542799 1.000000000000000
9.270567621972862 -11.921716199776405 0.303914621120368 3.000000000000000
9.274722100858535 -11.880043256056908 0.258058857260628 1.000000000000000
9.273056798356341 -11.921381109832701 0.211000876377029 3.000000000000000
9.270092838156074 -11.869999965705496 0.165081664060297 1.000000000000000
9.271798017054559 -11.923274021770972 0.120306818933788 5.000000000000000
9.266405128877622 -11.867982622027959 0.075022719629477 1.000000000000000
9.276241188309976 -11.925222982829212 0.027012364506500 8.000000000000000
9.237168810568173 -11.824673031416843 -0.016311100406801 10.000000000000000
9.235092675280828 -11.865353925874132 -0.063397841145530 8.000000000000000
9.181633126740717 -11.745893740062002 -0.104925650917444 7.000000000000000
9.100469821952602 -11.685246096473307 -0.144309757944929 8.000000000000000
9.181938657736550 -11.792416462167751 -0.242730352971332 7.000000000000000
9.184884060497794 -11.749631863051874 -0.287113521025961 8.000000000000000
9.170580776591169 -11.773290317334855 -0.333317234437967 8.000000000000000
9.196005843272923 -11.810820440403219 -0.425855820721023 7.000000000000000
9.201289508460080 -11.770615443621438 -0.470984160594955 7.000000000000000
9.207898807562827 -11.823239048685089 -0.519810078467286 7.000000000000000
9.181418006434379 -11.783495360758813 -0.607863381621382 8.000000000000000
9.194030010540091 -11.803646050629574 -0.700740243273817 8.000000000000000
9.219134418656211 -11.834035398244971 -0.796326373720403 8.000000000000000
9.203549646296091 -11.809376950640811 -0.885369873427414 8.000000000000000
9.223396926127219 -11.879974009842449 -0.939244090126070 8.000000000000000
9.191585864065651 -11.796193672783282 -0.974999944283794 6.000000000000000
9.203901586753391 -11.808958143671369 -1.068848396822095 7.000000000000000
9.211348829963196 -11.863116725628615 -1.121182385676174 8.000000000000000
9.192110273658512 -11.789427464735219 -1.157735100408503 7.000000000000000
9.173732153113360 -11.807929003730081 -1.205949203053315 12.000000000000000
9.146264568346952 -11.730104829164361 -1.241125060655405 16.000000000000000
9.153658091924534 -11.783541889722208 -1.293743012707004 15.000000000000000
9.112863312632456 -11.680894581793865 -1.325221306160649 13.000000000000000
7.632935517073565 -9.816100225880646 -1.503125667009256 11.000000000000000
6.902917910796596 -8.877262360356681 -1.530815687400609 10.000000000000000
6.303549775869830 -8.107662281349903 -1.523413993008828 11.000000000000000
5.807060298001756 -7.470657777443385 -1.580436273409389 10.000000000000000
5.391661303799169 -6.939718740968061 -1.606486540444560 10.000000000000000
4.797007237122932 -6.142804578489191 -1.678553666678778 10.000000000000000
9.157353696905250 -11.817221397400147 3.318710810350911 42.000000000000000
9.127377725626756 -11.762870635920443 2.487592626911028 32.000000000000000
8.967457821103400 -11.620663091191119 1.654463725395095 5.000000000000000
9.192302005219947 -11.920379088890044 1.131799531703519 6.000000000000000
9.277502317775708 -12.032320842768705 0.674440456303785 1.000000000000000
9.240347512709812 -11.973010455680523 0.486645957747857 3.000000000000000
9.257033594338301 -11.948049814011505 0.440762163117068 7.000000000000000
9.272880632876614 -12.021443019802341 0.395839038066216 1.000000000000000
9.249419436835009 -11.940881609703403 0.350266363312960 8.000000000000000
9.238289577581025 -11.969502890409267 0.303180604678195 4.000000000000000
9.254464196859571 -11.943948734465394 0.256944088932414 10.000000000000000
9.238470623130471 -11.965929636876197 0.210225200656763 4.000000000000000
9.257027759023282 -11.943543326642178 0.163463907567644 7.000000000000000
9.255936879509122 -11.993679132580908 0.118643397221474 1.000000000000000
9.250836780300800 -11.938312687740712 0.073216053765403 9.000000000000000
9.284007058733703 -12.027918002998099 0.023831224304510 3.000000000000000
9.243083353712047 -11.923896860831590 -0.019618505790646 10.000000000000000
9.226630823753297 -11.945263832026889 -0.066070968840294 8.000000000000000
9.159517285085162 -11.806212925887564 -0.106822762612297 7.000000000000000
9.101896891665865 -11.777631436046946 -0.148002265503057 8.000000000000000
9.112416132903043 -11.744674480177530 -0.193544055818156 5.000000000000000
9.183060941504062 -11.885047224177605 -0.246882373844145 7.000000000000000
9.179210058508195 -11.832505305254443 -0.290874280584290 8.000000000000000
9.169478748071105 -11.862599752870501 -0.337700747751457 8.000000000000000
9.205774560691443 -11.864759168395594 -0.385496772933097 6.000000000000000
9.196949588246325 -11.903472939945381 -0.430893688819492 7.000000000000000
9.197794786537820 -11.856752816521428 -0.475747756676221 7.000000000000000
9.211217591236716 -11.919115618224907 -0.525568018068283 8.000000000000000
9.192811272278687 -11.846588594118721 -0.567186064408591 8.000000000000000
9.192003924468137 -11.888872995002572 -0.614954138499957 8.000000000000000
9.225476460533379 -11.887295912290739 -0.663470307718738 8.000000000000000
9.187887941106618 -11.886544589533997 -0.706184150104851 8.000000000000000
9.211815965587991 -11.871827673514879 -0.753272465157087 7.000000000000000
9.217645905293386 -11.923421112087951 -0.802821523337100 8.000000000000000
9.217663883327212 -11.876214115472060 -0.846260252876681 8.000000000000000
9.204556184500236 -11.901859720584703 -0.892645038445020 8.000000000000000
9.190102384744872 -11.885434804767655 -0.982327725309568 7.000000000000000
9.204123118416721 -11.856844632045629 -1.027811560662153 7.000000000000000
9.195382664943756 -11.888549910819087 -1.075388449130413 8.000000000000000
9.183709445618360 -11.868918168942535 -1.164624779140488 8.000000000000000
9.174580372254145 -11.900245501388149 -1.214784028508948 13.000000000000000
9.140242163694058 -11.812657516593724 -1.248805822633795 17.000000000000000
9.085963163446134 -11.734421871673241 -1.329006145426429 13.000000000000000
7.598440819313727 -9.845237725802292 -1.504125732949208 12.000000000000000
6.869388799027518 -8.900645584241985 -1.531164608729409 11.000000000000000
6.270430945663865 -8.125759243546348 -1.522993741067351 10.000000000000000
5.780699135896323 -7.493427548294960 -1.581546450352296 10.000000000000000
5.364893620435645 -6.957846729841435 -1.606757864899396 9.000000000000000
5.054866681967989 -6.513043032553085 -1.640697699093842 13.000000000000000
4.781862541903862 -6.171559341271738 -1.682852360964670 10.000000000000000
9.130014800697607 -11.870740674719947 3.323241538677275 33.000000000000000
9.121334077580462 -11.845330831247686 2.495268609273783 30.000000000000000
8.964247008873082 -11.706185689488350 1.659111016864877 6.000000000000000
9.300808320915449 -12.064704621558157 0.860100816897477 2.000000000000000
9.250327606591972 -12.038999430344681 0.627663156165289 1.000000000000000
9.257202866327955 -12.088733609536540 0.486028834840697 2.000000000000000
9.274172411752172 -12.063703644672103 0.439839727097161 1.000000000000000
9.256984811549467 -12.043633124098960 0.348902724466770 1.000000000000000
9.255057094376772 -12.085238868445295 0.301344169305017 1.000000000000000
9.271512139401498 -12.059614869896656 0.254798867935081 2.000000000000000
9.260035114278379 -12.088096406522155 0.207618874298135 1.000000000000000
9.278877071839286 -12.065629309618082 0.160520825076526 1.000000000000000
9.260789525367528 -12.093291585715434 0.116083916571598 1.000000000000000
9.253689640008387 -12.034568254624467 0.070518089056858 1.000000000000000
9.284125693898428 -12.121111256264832 0.021016973847695 3.000000000000000
9.234298793022404 -12.003919426295653 -0.022117268199368 9.000000000000000
9.222414259609192 -12.031741486212482 -0.069040130566258 8.000000000000000
9.153564576928716 -11.889138383632115 -0.109833135577293 7.000000000000000
9.095755509169159 -11.860470597586804 -0.151187302919934 8.000000000000000
9.122960982566680 -11.850090662653685 -0.198197474740079 4.000000000000000
9.183643641625023 -11.977834993788669 -0.251036520511389 7.000000000000000
9.184818569129598 -11.931642721139376 -0.295666457771034 7.000000000000000
9.165513106905617 -11.948829950725781 -0.341869148932646 7.000000000000000
9.199578620138652 -11.947795390077481 -0.389640811575330 7.000000000000000
9.195010453573863 -11.993062371490183 -0.435693928619240 7.000000000000000
9.193805354017636 -11.943016047380063 -0.480513059502455 7.000000000000000
9.209288227035897 -12.008701626125919 -0.530799207048829 8.000000000000000
9.203012859722541 -11.952142289352722 -0.574012723022023 8.000000000000000
9.185551985411241 -11.971886879927517 -0.620031745471813 8.000000000000000
9.214451664491609 -11.963888524392438 -0.668142753701844 8.000000000000000
9.195309344602851 -11.988942136455016 -0.713497019301133 8.000000000000000
9.212409796988139 -11.964513801645587 -0.759881695866574 7.000000000000000
9.215641111689596 -12.012944535913611 -0.809318667004158 8.000000000000000
9.220646855186940 -11.972080050964145 -0.853666138633904 8.000000000000000
9.207365580486423 -11.997726835120794 -0.900281551175882 7.000000000000000
9.217035566956534 -11.962925942204400 -0.945641119482837 7.000000000000000
9.190438988327790 -11.978047636948766 -0.990039417602538 6.000000000000000
9.195325976062595 -11.936521706339363 -1.034179013409686 7.000000000000000
9.198100414193876 -11.984337181661147 -1.083954184978661 8.000000000000000
9.204922413107452 -11.945986059323580 -1.128321298415636 7.000000000000000
9.188886088992440 -11.967815447850946 -1.174086317111519 8.000000000000000
9.143080152322176 -11.908195512835199 -1.258293128755807 18.000000000000000
9.156736944123518 -11.879007462901313 -1.303470601215051 15.000000000000000
9.051796608263800 -11.778266674885124 -1.331366635155551 11.000000000000000
7.573033868582049 -9.887110665926095 -1.507575312557047 12.000000000000000
6.840343679915519 -8.930339681028961 -1.532876318634987 12.000000000000000
6.241791861148739 -8.150154448654071 -1.524049229590855 10.000000000000000
5.749750496895528 -7.509703514515394 -1.581020285278888 10.000000000000000
5.031806025927914 -6.533186832339759 -1.641901397391333 14.000000000000000
4.768770305983198 -6.203475493927812 -1.688165290690923 10.000000000000000
9.141557698477127 -11.978479927431415 3.339907216546418 33.000000000000000
9.131082842376145 -11.950413806225853 2.506503814108609 32.000000000000000
9.289099008257624 -12.141793152267638 0.860873797450565 6.000000000000000
9.275208237517710 -12.122317373409274 0.674723810473622 1.000000000000000
9.272832537152116 -12.159310089404521 0.533479074337003 2.000000000000000
9.281238364090470 -12.166662866734214 0.438983354250029 3.000000000000000
9.261243932932182 -12.098454066684205 0.394963624765074 1.000000000000000
9.266280553936795 -12.149831193604435 0.347495584882067 2.000000000000000
9.278494368385745 -12.162572648397401 0.252908604901077 2.000000000000000
9.276547335075948 -12.155621086471328 0.158457800025041 2.000000000000000
9.267675197748394 -12.147207082218955 0.067260409198949 1.000000000000000
9.239108834456555 -12.103468492566137 -0.025428724920876 9.000000000000000
9.227044828347822 -12.131321637801015 -0.072599736567000 8.000000000000000
9.149481651747733 -11.975413555789970 -0.113004215926536 7.000000000000000
9.103132894182016 -11.962892576855609 -0.155395240786975 8.000000000000000
9.139890337152700 -11.965453787462991 -0.203400893261111 4.000000000000000
9.183684247088101 -12.070783216983642 -0.255193051357787 7.000000000000000
9.178143225646366 -12.014769748395757 -0.299430162042869 8.000000000000000
9.170391122331548 -12.048145806217107 -0.346910810253178 7.000000000000000
9.209297309054467 -12.053588208021488 -0.395395470384401 7.000000000000000
9.197213843543986 -12.089271412754158 -0.440977597078968 7.000000000000000
9.196330876869887 -12.039112145019239 -0.486038748189959 7.000000000000000
9.213835335687071 -12.108144888796218 -0.536826500019535 8.000000000000000
9.196220124931280 -12.035269695221380 -0.578905692321067 8.000000000000000
9.183292906373469 -12.061478273866321 -0.625687383122322 8.000000000000000
9.226388300181041 -12.072867981694785 -0.675820028186379 8.000000000000000
9.185825626510272 -12.068878748619071 -0.718634072598246 8.000000000000000
9.210129804603612 -12.054119272594811 -0.766169828381701 8.000000000000000
9.215446185356882 -12.105845812169719 -0.816152729811170 8.000000000000000
9.223067420155287 -12.068110769672323 -0.861073721351474 8.000000000000000
9.207281099959394 -12.090540969165694 -0.907561928309243 8.000000000000000
9.210202564663371 -12.045984395727714 -0.952039576023476 7.000000000000000
9.187909759308189 -12.067585181902473 -0.997371952652245 7.000000000000000
9.202396399706089 -12.038878549974775 -1.043301296010212 7.000000000000000
9.197929370772192 -12.077068585883488 -1.092117319689242 8.000000000000000
9.200356298739356 -12.032175727506967 -1.135877963857157 8.000000000000000
9.167888078133974 -12.031416459076041 -1.178837649322915 10.000000000000000
9.167893349603650 -11.983058458070616 -1.222299292372022 13.000000000000000
9.136071152049274 -11.991000388266869 -1.265978040551945 19.000000000000000
9.140636304535304 -11.948888390765077 -1.309495074343491 15.000000000000000
9.029038413967202 -11.838141428611806 -1.336099101308431 11.000000000000000
7.535975016698569 -9.912833484677030 -1.507959220641593 12.000000000000000
6.808897491094135 -8.956731745653478 -1.533904519469502 11.000000000000000
5.344745497992469 -6.985483376411004 -1.609679870760949 9.000000000000000
5.010870581223223 -6.556454126567097 -1.644053898458795 13.000000000000000
4.744564754457016 -6.219414831560485 -1.688403350196055 10.000000000000000
9.312875481052112 -12.310437841206010 3.406523288491889 18.000000000000000
9.191064809486679 -12.126653951989297 2.528923978439176 15.000000000000000
8.960543442462964 -11.791838341416977 1.663756365856126 6.000000000000000
9.265293627652241 -12.202713050462499 0.861201080491849 7.000000000000000
9.260732410738155 -12.196205037621226 0.674795859417042 7.000000000000000
9.246606691318398 -12.216959408472398 0.533057231325064 5.000000000000000
9.264011657772802 -12.191739362668613 0.485431109324505 6.000000000000000
9.243385421389060 -12.208080080420523 0.438459163043898 4.000000000000000
9.258509077926812 -12.188535557161352 0.393971628680054 7.000000000000000
9.247003594516334 -12.217220592342002 0.346575090604783 7.000000000000000
9.257114393586281 -12.181762605237331 0.299820061261403 5.000000000000000
9.242923763605972 -12.207230746393783 0.252178208088979 8.000000000000000
9.266833389400100 -12.191092216704376 0.205466834790908 5.000000000000000
9.250378574028071 -12.213258542775364 0.157278222355332 6.000000000000000
9.262721635215188 -12.189841998099396 0.113621369126815 7.000000000000000
9.243733916599352 -12.208083703761318 0.065784448515211 8.000000000000000
9.269694687324320 -12.194981143629334 0.018940753421063 8.000000000000000
9.236342446556399 -12.193465884858469 -0.028337053997171 9.000000000000000
9.140240221923289 -12.055319793528341 -0.115858324293813 7.000000000000000
9.100617763679136 -12.052504922460855 -0.158924733457355 8.000000000000000
9.137503814104349 -12.055098710787483 -0.207149103068485 5.000000000000000
9.183183322712436 -12.163872651077227 -0.259350973674905 7.000000000000000
9.184964127654601 -12.117490686152870 -0.304433217533352 7.000000000000000
9.165387660003596 -12.134658277771649 -0.351083061856259 7.000000000000000
9.202074920060630 -12.136900876006173 -0.399543227716331 7.000000000000000
9.194213833026811 -12.179150852874187 -0.445781945100971 7.000000000000000
9.198291793786565 -12.135380390826910 -0.491566904517806 7.000000000000000
9.206192463772188 -12.191532440525151 -0.541531589513977 8.000000000000000
9.200585130812032 -12.134728120668534 -0.585184397270135 8.000000000000000
9.178193221033238 -12.147963544382016 -0.631056446192733 8.000000000000000
9.214393697291529 -12.149696261626900 -0.680495573233331 8.000000000000000
9.180524037996626 -12.155394810174400 -0.724394995085723 8.000000000000000
9.214299003935807 -12.153588536491569 -0.773430120157630 7.000000000000000
9.212392206651055 -12.195645736562760 -0.822653088825623 8.000000000000000
9.213304914877236 -12.148134490889710 -0.866748948638095 8.000000000000000
9.206655947051241 -12.183504192063161 -0.914844422293323 7.000000000000000
9.212194842064772 -12.142085047882986 -0.959922506345364 7.000000000000000
9.182547887971582 -12.154018197744371 -1.004324888468202 6.000000000000000
9.194939454759673 -12.122028562901846 -1.050065491479775 7.000000000000000
9.199531640612173 -12.173183119822937 -1.100687020753956 7.000000000000000
9.192974517533649 -12.115263812548960 -1.143019866273057 7.000000000000000
9.174333801144266 -12.133832664682281 -1.188731677972117 11.000000000000000
9.139844829557235 -12.036927493242494 -1.225849696026695 15.000000000000000
9.140140140597877 -12.090081801532932 -1.275921025148888 16.000000000000000
9.135734650231294 -12.034946086587446 -1.317836599311525 12.000000000000000
9.008278210575387 -11.901227951683417 -1.341305422157970 12.000000000000000
8.328945086025149 -11.033138246416485 -1.465656291246085 16.000000000000000
6.213053957168307 -8.174459583156647 -1.525103293591293 9.000000000000000
5.723226743506983 -7.532287421105238 -1.582127562791376 10.000000000000000
5.320030629311464 -7.006657141392964 -1.610832768910520 9.000000000000000
4.994224195153232 -6.586052251906125 -1.648104609468164 13.000000000000000
4.722479508029449 -6.238484394282601 -1.689655907053253 12.000000000000000
9.333750644677334 -12.435228923991282 3.426741704683230 19.000000000000000
9.243022175786415 -12.293760829219615 2.549810945920815 12.000000000000000
8.967920059507769 -11.893844074159418 1.669900432040690 6.000000000000000
9.238848797807897 -12.260362271550235 0.861440873058586 5.000000000000000
9.259774673424658 -12.289694407517111 0.675117787202200 0.000000000000000
9.268775496775902 -12.343028545420673 0.532763971046623 1.000000000000000
9.253932136805046 -12.272165033443621 0.484871936488211 1.000000000000000
9.279612163593598 -12.353641334516048 0.437368642165214 1.000000000000000
9.276146845610320 -12.308070606089338 0.392716433899129 1.000000000000000
9.273701167676970 -12.349843834721476 0.344835648421227 1.000000000000000
9.240016942013478 -12.252402774068450 0.298716512287239 2.000000000000000
9.276711660609505 -12.349562446430710 0.249506529561845 2.000000000000000
9.256742880112213 -12.271513104608864 0.203847823938886 2.000000000000000
9.270327350856469 -12.336008075962667 0.154325812472736 1.000000000000000
9.259443957277819 -12.280053218437317 0.111355773874069 1.000000000000000
9.268124472836691 -12.337389818106161 0.061962842927259 1.000000000000000
9.271118166098303 -12.291676965395695 0.016000138881296 4.000000000000000
9.235372995433426 -12.286858853195710 -0.031382845377368 9.000000000000000
9.221788958162504 -12.218077448482056 -0.075572749011664 8.000000000000000
9.139826421383759 -12.148336725905601 -0.119351277816688 7.000000000000000
9.143860151233126 -12.157905603296129 -0.211629218210047 4.000000000000000
9.181906565322027 -12.207393143154867 -0.308613847684395 7.000000000000000
9.210607445630757 -12.243074849065522 -0.405303316560567 7.000000000000000
9.197372681689789 -12.228566743259336 -0.496844268766787 7.000000000000000
9.199732463852190 -12.227866353304343 -0.590911991845894 7.000000000000000
9.181835807793021 -12.247582433843753 -0.637581220270772 8.000000000000000
9.222817031166912 -12.255816470176470 -0.687877660540217 8.000000000000000
9.217880777136235 -12.253237723113031 -0.780693016974747 7.000000000000000
9.208817396418691 -12.285590341651478 -0.829156045681066 8.000000000000000
9.214653617839524 -12.244468844831680 -0.874161379867090 8.000000000000000
9.203180627030099 -12.273371485897258 -0.921770196821348 7.000000000000000
9.206683091970813 -12.228624927801846 -0.966695128642146 6.000000000000000
9.176689041502694 -12.240568955565152 -1.011279498244408 7.000000000000000
9.196242788463771 -12.218252162452366 -1.058405542451083 7.000000000000000
9.193659986045324 -12.259734480669486 -1.108044008700947 8.000000000000000
9.196664844028572 -12.214651129398014 -1.152249434218244 8.000000000000000
9.166347414073371 -12.216996720752952 -1.196056435252583 12.000000000000000
9.162342363684077 -12.161940550585520 -1.239097300755828 14.000000000000000
9.136726361718198 -12.179618283629949 -1.284512263502123 16.000000000000000
9.114204583148821 -12.098472327341725 -1.322935731859727 13.000000000000000
8.996379549720492 -11.977284244124498 -1.348412086045777 12.000000000000000
7.501103303150209 -9.941652444982893 -1.508954298379834 11.000000000000000
6.777345988128772 -8.983021046254208 -1.534931113297743 13.000000000000000
6.184217409908012 -8.198674676702844 -1.526155902372705 10.000000000000000
5.698834838837137 -7.558011775258365 -1.584051225165790 10.000000000000000
5.297434424630557 -7.030949619443895 -1.612867648446762 9.000000000000000
4.970868980519383 -6.606003516001799 -1.649305301703794 13.000000000000000
4.706812779694610 -6.267101282691534 -1.693952266547324 10.000000000000000
9.322094523418693 -12.515307780782756 3.436968314590759 31.000000000000000
9.255004845791044 -12.406299948301452 2.562048711401296 11.000000000000000
8.958566875537391 -11.973267177310163 1.673942160218834 6.000000000000000
9.195934926717879 -12.295144075027082 0.861059913756143 8.000000000000000
9.276748751797715 -12.409456033342359 0.675770624312514 4.000000000000000
9.280942959949614 -12.456341320274539 0.532442263135019 3.000000000000000
9.268851425183239 -12.388568983067593 0.484245143443673 1.000000000000000
9.271053858709625 -12.437551532115229 0.436612419567815 5.000000000000000
9.286127556179313 -12.418085981996271 0.391544744377238 1.000000000000000
9.278831159201470 -12.453381891873221 0.343461479966116 2.000000000000000
9.271090010258181 -12.391622849166559 0.296500720096809 1.000000000000000
9.286540159929542 -12.459611793840160 0.247477901200377 3.000000000000000
9.264710413137109 -12.378116502021925 0.201614271108863 1.000000000000000
9.287217117455585 -12.455780605922371 0.151458821452168 3.000000000000000
9.281055029604204 -12.406298748915212 0.107990564776122 1.000000000000000
9.275583350203982 -12.444141570766341 0.058920167788277 2.000000000000000
9.262727189411740 -12.375498372480322 0.013550991678503 6.000000000000000
9.236166288490928 -12.383660999419085 -0.034566427798182 9.000000000000000
9.220660942926262 -12.311474133783548 -0.078842326049562 8.000000000000000
9.125018796086021 -12.221917792586602 -0.121888426037285 7.000000000000000
9.102201555066960 -12.148776367560735 -0.162797115316804 7.000000000000000
9.147299587157320 -12.257643560383272 -0.215928919827753 5.000000000000000
9.182138263565106 -12.257126063429297 -0.263511655378921 7.000000000000000
9.182938745123394 -12.303956828185463 -0.313209185586267 7.000000000000000
9.171447860500853 -12.237568025338518 -0.356347645018544 7.000000000000000
9.204663186405444 -12.329896911161882 -0.409684169401412 8.000000000000000
9.195308652569208 -12.275680578867473 -0.451070155138411 7.000000000000000
9.193607445672333 -12.318630478052945 -0.501869747770583 7.000000000000000
9.207310726557548 -12.288049300537494 -0.547298520770415 7.000000000000000
9.193728727599275 -12.314637550515691 -0.596087731843296 8.000000000000000
9.214471624372848 -12.339355308741020 -0.693156823846407 8.000000000000000
9.181641485471134 -12.251789044617908 -0.731092085472609 8.000000000000000
9.211671661738206 -12.340038011835084 -0.786663148630036 7.000000000000000
9.215435758929486 -12.340971151102202 -0.881576132408378 8.000000000000000
9.202974826573895 -12.318529888064013 -0.973839639255192 7.000000000000000
9.192385611635586 -12.308134867524032 -1.065959752408131 7.000000000000000
9.188278283401903 -12.297984485447103 -1.159394671749498 8.000000000000000
9.164764272435132 -12.310008248891293 -1.204668912150672 12.000000000000000
9.163385445862264 -12.258063713077860 -1.248380222070367 14.000000000000000
9.148804496843299 -12.292041132933491 -1.296266302393292 16.000000000000000
8.988629596494521 -12.059905734593926 -1.356469735287695 13.000000000000000
7.466116659175197 -9.970363160089249 -1.509947602018613 12.000000000000000
6.736691889080150 -8.996259884721582 -1.533226494937985 13.000000000000000
6.155283775821774 -8.222792254439433 -1.527207033579508 10.000000000000000
5.672115440772572 -7.580415877530001 -1.585154838849101 9.000000000000000
5.270340303957233 -7.048744348054583 -1.613133759367307 9.000000000000000
4.958304494486046 -6.641982802856198 -1.655256266586198 12.000000000000000
4.690998855218395 -6.295693472902698 -1.698248239867526 10.000000000000000
9.251276343960289 -12.511648203530640 3.428648678883539 27.000000000000000
9.254919879857473 -12.502839579507288 2.571742021785827 24.000000000000000
8.967098327017798 -12.078894590939186 1.680380362856869 7.000000000000000
9.191974640110535 -12.385404881773425 0.862185924728628 7.000000000000000
9.249330080776575 -12.467292784496280 0.675630738228870 8.000000000000000
9.246513061932550 -12.504382761781791 0.532000173342687 10.000000000000000
9.253133867943461 -12.462710725757752 0.483694663464224 7.000000000000000
9.236742389499993 -12.485550629489140 0.436052192979187 9.000000000000000
9.258668472793921 -12.475953060414518 0.390837973053660 10.000000000000000
9.237465406674382 -12.491590913835921 0.342907326717492 11.000000000000000
9.255282425242710 -12.465786473698643 0.295340068283623 9.000000000000000
9.240604653670193 -12.491298599765386 0.247006230774976 11.000000000000000
9.258225938606889 -12.465311569981743 0.199838451971170 8.000000000000000
9.234443572863226 -12.477648589314313 0.151254322859089 11.000000000000000
9.253620967175049 -12.464137515339587 0.106719039102124 10.000000000000000
9.236527996806657 -12.485611526906887 0.058112595673060 12.000000000000000
9.258459578645631 -12.465960033104416 0.010852941364857 11.000000000000000
9.238685681513777 -12.483904854402034 -0.037888059375906 9.000000000000000
9.218987786595806 -12.405019158693307 -0.082113804174627 8.000000000000000
9.114398151465565 -12.302099303853367 -0.124746183225760 7.000000000000000
9.096325174576979 -12.235403768033592 -0.166160068957744 8.000000000000000
9.154735313435635 -12.364108421197592 -0.220597224336644 5.000000000000000
9.180549401262834 -12.350524171228550 -0.267674462575627 7.000000000000000
9.171932315201810 -12.384330803332837 -0.316774037260187 8.000000000000000
9.167692332543224 -12.327619667287159 -0.360741944915096 7.000000000000000
9.211993088074721 -12.436449277877728 -0.415449473714057 8.000000000000000
9.195835895455804 -12.372374218955983 -0.456360654598782 7.000000000000000
9.193902499171413 -12.415369576651514 -0.507404534819490 7.000000000000000
9.207861647814973 -12.384730114102425 -0.553067740257618 8.000000000000000
9.191810567858521 -12.408057281563259 -0.601819205165383 8.000000000000000
9.180292054524845 -12.340859377164151 -0.643531309206321 8.000000000000000
9.217116975795603 -12.439320590473535 -0.699942309508554 11.000000000000000
9.184486153722348 -12.351609216039051 -0.738103085657297 8.000000000000000
9.207253222302139 -12.430220698907057 -0.792959343818761 9.000000000000000
9.216196959968604 -12.391958674807810 -0.837337656721412 7.000000000000000
9.208781106355509 -12.427854147278900 -0.887950827547415 10.000000000000000
9.199185115536299 -12.363368097811254 -0.928697791950987 7.000000000000000
9.198746447185416 -12.408568045695546 -0.980986603164646 7.000000000000000
9.186369854956002 -12.350030921111866 -1.020907688191365 7.000000000000000
9.194865045954188 -12.407927643842221 -1.074698011877921 7.000000000000000
9.196457554708466 -12.359413643061167 -1.117024055349711 7.000000000000000
9.195421234033057 -12.404203444200284 -1.169463690779179 8.000000000000000
9.159288590350400 -12.347857427959497 -1.256784015906469 16.000000000000000
9.026774886197490 -12.163734893258486 -1.324323336587854 13.000000000000000
8.984960026922137 -12.149135109189899 -1.365479037347922 17.000000000000000
7.433272574637187 -10.002201215631224 -1.511552537573100 11.000000000000000
6.702737652465901 -9.019068951454912 -1.533566886151049 13.000000000000000
6.121808981578549 -8.240315064184465 -1.526776895673667 10.000000000000000
5.645304198968033 -7.602754284722927 -1.586258198335565 9.000000000000000
5.251913600329569 -7.079378901548665 -1.616936470632099 10.000000000000000
4.934727071904676 -6.661823292873571 -1.656455206229107 12.000000000000000
4.670750283187010 -6.317818597061510 -1.700513343645584 9.000000000000000
9.198567726656615 -12.533508807598906 3.426038980335174 50.000000000000000
9.199870119577778 -12.521383400937751 2.569239647244965 52.000000000000000
8.959035086694668 -12.161822803126810 1.684718603408847 6.000000000000000
9.185203336156523 -12.472517069736710 0.863222101174429 7.000000000000000
9.185027341599790 -12.472576258301196 0.674830589269748 7.000000000000000
9.184445581505168 -12.512939277860809 0.531490496776242 9.000000000000000
9.214095774743251 -12.504095503122308 0.483208021732664 9.000000000000000
9.177054086156097 -12.497365266823635 0.435692407051806 9.000000000000000
9.203464968109326 -12.494395818542507 0.390486126269937 9.000000000000000
9.182245574236202 -12.509965306819858 0.342602846701814 9.000000000000000
9.218462024784960 -12.510478676656405 0.294657239070752 10.000000000000000
9.180850308978103 -12.503122275826755 0.246927768504945 10.000000000000000
9.214581477123497 -12.500155992444824 0.199293341384758 10.000000000000000
9.186199311139996 -12.505869284073398 0.150875051765048 9.000000000000000
9.209880069330174 -12.498969557152066 0.106149828623272 10.000000000000000
