# This PCD file was generated using the MATLAB® pcwrite function
# from Computer Vision Toolbox®.
# .PCD v.7 - Point Cloud Data file format
VERSION .7
FIELDS x y z intensity
SIZE 8 8 8 8
TYPE F F F F
COUNT 1 1 1 1
WIDTH 643
HEIGHT 1
VIEWPOINT 0 0 0 1 0 0 0
POINTS 643
DATA ascii
3.407673262358108 38.445361271979166 -0.150433329602255 0.000000000000000
2.571968237241543 28.799515346439236 -0.242158968403713 0.000000000000000
2.602577002956193 28.676418525912567 -0.323463512347485 0.000000000000000
2.498857490334237 28.166857308324467 -0.393299550044909 1.000000000000000
2.485729998147689 28.135166868036720 -0.465595751751871 16.000000000000000
2.297193898173703 25.606947244661797 -0.455127037124567 1.000000000000000
2.334070437419709 25.602656544789966 -0.530597379297616 2.000000000000000
2.275551780379655 25.522291566582012 -0.603615941566108 2.000000000000000
2.162987277323469 24.426050951773220 -0.701007295020880 1.000000000000000
2.177889885081639 24.300986538638028 -0.831424845167423 2.000000000000000
2.181264642414690 23.954218123315485 -0.882539069408900 1.000000000000000
2.150376829349145 24.142711876505160 -0.966429478079909 1.000000000000000
2.175922270085709 24.038257883930569 -1.030003478548630 3.000000000000000
2.134294262531083 24.114904456464444 -1.108620098528807 4.000000000000000
2.210551427048714 24.133882087823537 -1.171454328067715 7.000000000000000
2.169197789109633 24.214241705391842 -1.250633621411931 0.000000000000000
2.154810756339901 23.675964936487034 -1.280589609374049 3.000000000000000
2.113621758168865 23.743880473763895 -1.357978129782388 0.000000000000000
2.140315796150291 23.658355201523904 -1.419598430991669 1.000000000000000
2.130953864463942 24.086920509641928 -1.529188846458180 10.000000000000000
2.127583349670948 23.247848692924293 -1.515832462085801 7.000000000000000
1.976590775537870 21.749566059035857 -1.513162996570848 10.000000000000000
1.694621199147385 18.694591781382655 -1.551427710643506 8.000000000000000
1.469069430462855 16.250493568927382 -1.559927564517332 9.000000000000000
1.164411952149399 12.948625365835753 -1.544689192176507 8.000000000000000
1.052209853093123 11.733479684107493 -1.583875307656631 6.000000000000000
0.960124606229432 10.735534982147726 -1.585701308853698 6.000000000000000
0.815732304554762 9.170816077051199 -1.584588404831008 6.000000000000000
0.609056101912458 6.689199295727917 -1.598429682900465 6.000000000000000
2.735977468516346 29.307140215056720 -0.081284011333377 3.000000000000000
2.753912003249240 29.048541481091419 -0.162184860066314 1.000000000000000
2.673649972911264 28.814828375971103 -0.242874798158102 0.000000000000000
2.593164886499586 28.126695637556693 -0.392352946964963 1.000000000000000
2.580196938206959 28.099034410099264 -0.464697024502476 23.000000000000000
2.384691350820702 25.591385586504927 -0.454897487313832 1.000000000000000
2.255097499079365 24.356958682696458 -0.552566944370550 1.000000000000000
2.257268300069531 24.006922689051635 -0.607203510764733 1.000000000000000
2.181309498747310 23.710874648756970 -0.665554728782011 0.000000000000000
2.275391448144570 24.824134427718491 -0.785424082643104 2.000000000000000
2.192250894468180 23.558212558312320 -0.790358024841845 0.000000000000000
2.208221635685588 23.366692262587733 -0.848432539789716 0.000000000000000
2.170268863312883 23.459887067761642 -0.924651294043255 2.000000000000000
2.192993731705941 23.339656040206037 -0.985226045957192 0.000000000000000
2.166390758339134 23.559516360717865 -1.071436345155169 2.000000000000000
2.236641413704784 23.534804966489872 -1.129737421076757 3.000000000000000
2.195315363098661 23.599430442458768 -1.205937683365558 3.000000000000000
2.202889706027188 23.319491821224034 -1.253887240808443 2.000000000000000
2.173081156876515 23.498736372030692 -1.339066066068946 2.000000000000000
2.203304393076573 23.456852399354389 -1.403608213545301 2.000000000000000
2.163760786987647 23.540212950613608 -1.483011798085534 2.000000000000000
2.206768416491866 23.232923336065909 -1.515199659260165 7.000000000000000
2.074828207416134 22.328518317656417 -1.503265104769369 10.000000000000000
1.759855306907702 18.701015686700160 -1.552814536391812 8.000000000000000
1.525015379277310 16.249796591070776 -1.560488678117993 8.000000000000000
1.208833413517356 12.948998447934756 -1.545366411422341 8.000000000000000
1.090517338083755 11.714647931431344 -1.581038998569320 6.000000000000000
0.996816181101284 10.736603346472521 -1.586517562362316 6.000000000000000
0.847329224034957 9.176243477108557 -1.586446990985791 6.000000000000000
0.630505072641798 6.680053159903125 -1.595952123205048 3.000000000000000
2.837153371891392 29.297966418037660 -0.081377602165924 3.000000000000000
2.851438410085325 29.011478741350984 -0.161624606281518 1.000000000000000
2.776626234682042 28.841716847508906 -0.243910098238478 0.000000000000000
2.435625260715340 25.583573663137798 -0.376816468402182 1.000000000000000
2.317152083675717 23.638113570436090 -0.450548046089367 0.000000000000000
2.269829029296349 23.637561581541902 -0.521192501240480 1.000000000000000
2.282723900507062 23.418935079025701 -0.579924595885701 3.000000000000000
2.231912434793244 23.381571364692817 -0.649466105457886 5.000000000000000
2.284677297320080 24.025378551369144 -0.743665760356779 1.000000000000000
2.244193780230169 23.252858333546925 -0.773754883982464 0.000000000000000
2.275251125956292 23.224315532243793 -0.840546103122878 1.000000000000000
2.232129590692159 23.258033943649110 -0.912660861653218 1.000000000000000
2.260835961781773 23.205328200199801 -0.977051809282695 1.000000000000000
2.213424782118206 23.198820032119414 -1.047485757458924 1.000000000000000
2.281156591788474 23.162152133923485 -1.104006864970746 1.000000000000000
2.242384466086845 23.242788323581038 -1.180263934948247 1.000000000000000
2.279991921315498 23.280489032016121 -1.251526321932526 3.000000000000000
2.247809741759749 23.428083024878632 -1.334076754606281 3.000000000000000
2.284852217200839 23.457534664687259 -1.404338880957244 2.000000000000000
2.245603738332606 23.541011548876213 -1.483770316911543 3.000000000000000
2.287059918090526 23.229629968077049 -1.515621442140167 8.000000000000000
2.125699326727482 21.732437192669650 -1.512922073595202 10.000000000000000
1.823583958574549 18.691387292903499 -1.552429288969470 9.000000000000000
1.582143309103896 16.260745696368247 -1.562590231392193 8.000000000000000
1.252877205775891 12.945280366253641 -1.545406655776900 8.000000000000000
1.131414722578687 11.723099143049765 -1.583228633029246 6.000000000000000
1.033524775704280 10.737545523502789 -1.587335320303912 7.000000000000000
0.878204815391942 9.173812187520454 -1.586475244160325 6.000000000000000
0.652279642331594 6.674608183266400 -1.594724415237740 1.000000000000000
2.937488233907799 29.280506270222261 -0.081308449647035 2.000000000000000
2.473555968966375 24.480843370889943 -0.201203869056569 1.000000000000000
2.373954258772474 23.979852996771768 -0.258619204214818 1.000000000000000
2.424072567423021 24.577072377858670 -0.341846457159265 1.000000000000000
2.368065456319096 23.670387899001938 -0.382312407723385 0.000000000000000
2.366270224624470 23.316379544495121 -0.437693280790458 1.000000000000000
2.326015165683938 23.379589948335195 -0.510199213759766 2.000000000000000
2.357703387440362 23.355753822142290 -0.577379862482599 16.000000000000000
2.307693278776675 23.326520843198963 -0.647147995573193 12.000000000000000
2.314204695802028 23.485227845695448 -0.715570242961859 0.000000000000000
2.320990872877520 23.213675070339633 -0.772049622034027 1.000000000000000
2.349879768732681 23.165170887302182 -0.837578630725196 8.000000000000000
2.304603195603873 23.175209704649447 -0.908058409435558 7.000000000000000
2.336683221167116 23.158157720466036 -0.974551855235487 5.000000000000000
2.287365466291167 23.131962786490334 -1.043512385557669 3.000000000000000
2.312303200617637 23.136171325478699 -1.173022413206370 3.000000000000000
2.363770897826789 23.308679125544103 -1.254341004543852 4.000000000000000
2.345623867720318 23.591273664522760 -1.347757673513132 3.000000000000000
2.386967173306068 24.136397657705118 -1.535543111454672 9.000000000000000
2.229127833467024 22.322563042658018 -1.504132126161803 9.000000000000000
1.887666964309177 18.685489724363208 -1.552490344789176 8.000000000000000
1.638147159630299 16.259645926853679 -1.563155983933350 8.000000000000000
1.296502809506492 12.937477432081820 -1.544809805808397 8.000000000000000
1.171177306467137 11.719661881981168 -1.583266596006631 7.000000000000000
1.068647240802518 10.722741529767461 -1.585016353287762 6.000000000000000
0.907878842444772 9.159646233006882 -1.583757317066165 6.000000000000000
0.674419852038520 6.672873571463001 -1.594746564890016 2.000000000000000
3.044406995832960 29.326340319279268 -0.082542593342414 2.000000000000000
2.481011759800086 23.745007281917083 -0.179889703334915 0.000000000000000
2.426522056116622 23.681707731560365 -0.249282568646513 1.000000000000000
2.426898728328590 23.777717501199561 -0.314139273137036 1.000000000000000
2.419545804723323 23.376333843254884 -0.371455063511060 0.000000000000000
2.441047259342880 23.256892582633171 -0.435644750128796 0.000000000000000
2.396165058952654 23.272536235834565 -0.505885216674331 3.000000000000000
2.433525283355599 23.304250684080301 -0.575399818058774 11.000000000000000
2.378171930243320 23.223529287829010 -0.642437373187142 204.000000000000000
2.376942468769877 23.302735161472341 -0.706399415438574 7.000000000000000
2.402950248768185 23.225878057138829 -0.773238665049113 36.000000000000000
2.427072017567917 23.133580206848791 -0.836253039959312 25.000000000000000
2.383554587839061 23.159657912469271 -0.907644375482985 27.000000000000000
2.414742970129351 23.134564751421763 -0.973601256326195 17.000000000000000
2.363329543742557 23.088689752026397 -1.041161910266987 12.000000000000000
2.355488395644080 23.103004065961812 -1.100438963022736 4.000000000000000
2.389813863592045 23.108700329128965 -1.171636035614872 5.000000000000000
2.450719566071290 23.364323778469725 -1.259289190327609 5.000000000000000
2.435925230778840 23.670776798010138 -1.354798434022577 6.000000000000000
2.464359641971482 23.612651010813508 -1.418596717626220 0.000000000000000
2.482430837043349 24.247429230286883 -1.545829588324416 8.000000000000000
2.367758975517662 23.229981430877388 -1.516400988642848 6.000000000000000
2.305448755122354 22.311259308491827 -1.503843507099018 10.000000000000000
1.953404993032710 18.695173337820307 -1.554328912934541 9.000000000000000
1.694160520487983 16.258359371813725 -1.563723993035301 8.000000000000000
1.341334747481388 12.941303443617670 -1.546131426745493 8.000000000000000
1.210510313525628 11.712171989385411 -1.582588381764948 7.000000000000000
1.105329334983477 10.723433041079318 -1.585837072222475 6.000000000000000
0.939512425407998 9.164751360409511 -1.585619706138709 6.000000000000000
0.696963162190421 6.674835767932848 -1.596018644039007 6.000000000000000
2.591813164463674 24.207099388273321 0.021713109613624 0.000000000000000
2.605078639633327 24.005078105432190 -0.045344280848862 2.000000000000000
2.520283924138616 23.664402726678532 -0.108061080447764 0.000000000000000
2.530258225305554 23.438688580724815 -0.171204276608985 0.000000000000000
2.460720659110331 23.320521243368518 -0.298437182285977 0.000000000000000
2.490959674438215 23.284872719543671 -0.368345976178985 0.000000000000000
2.520232221733962 23.240857498853060 -0.435400244912474 0.000000000000000
2.468591523950740 23.193071228375274 -0.502807746612645 3.000000000000000
2.501204134331064 23.181005754770737 -0.570049383387287 6.000000000000000
2.449659535155170 23.136221855632911 -0.638527789094738 21.000000000000000
2.447770792979429 23.207496503728123 -0.701852218682775 143.000000000000000
2.479855958573752 23.190130665528400 -0.771762163511942 250.000000000000000
2.506683467196131 23.125549494260810 -0.836335401255004 39.000000000000000
2.461567117525368 23.135879544795074 -0.906744890157376 54.000000000000000
2.494393505491005 23.126574287397972 -0.973685065337676 32.000000000000000
2.442417896286040 23.076916873549990 -1.040974603817968 23.000000000000000
2.431976493821170 23.067450720668049 -1.098553059425583 13.000000000000000
2.468446124692634 23.092865717374337 -1.171130699161974 6.000000000000000
2.500662302016631 23.078682859437080 -1.238071724653060 1.000000000000000
2.526377443191647 23.745938387727946 -1.361530688602671 3.000000000000000
2.701364414484118 25.031168712965865 -1.536712889176717 7.000000000000000
2.567238471896217 24.251088194015253 -1.546936862223740 6.000000000000000
2.451024352770563 23.253858357342835 -1.519282955413003 7.000000000000000
2.383857752080728 22.319500147939053 -1.505371164729284 10.000000000000000
2.017497161387637 18.688826522946584 -1.554395258122693 8.000000000000000
1.750179158465115 16.256871248098122 -1.564294342410402 9.000000000000000
1.385775113612310 12.941048177880234 -1.546815941440841 8.000000000000000
1.251514846414045 11.720189575511796 -1.584783049258517 7.000000000000000
1.142877972536137 10.731781584546681 -1.588228559923493 6.000000000000000
0.970340350633924 9.161995491613979 -1.585651756094370 6.000000000000000
0.720801451768105 6.688029466644352 -1.601039346973910 6.000000000000000
3.259295211773795 29.416810136119580 -0.085024483749146 2.000000000000000
2.605622501411636 23.382612063182933 -0.169889041936281 3.000000000000000
2.553644356159504 23.339512304443886 -0.238872717570495 0.000000000000000
2.539208088701127 23.296470484035567 -0.297960156845745 0.000000000000000
2.570650665685901 23.272643715126534 -0.368277941031489 0.000000000000000
2.599332044802720 23.224542290171243 -0.435161204448418 0.000000000000000
2.545350393127170 23.157093739899850 -0.501662443238695 4.000000000000000
2.578345750093256 23.148891777219390 -0.569012034165896 12.000000000000000
2.531109058182158 23.143993205813530 -0.639412595273375 29.000000000000000
2.530233015718470 23.223212521618166 -0.703195034202033 255.000000000000000
2.551654034101254 23.110473169836510 -0.767841952003792 30.000000000000000
2.585814732011269 23.113252817380342 -0.836189225401925 50.000000000000000
2.540762361239826 23.123758133263948 -0.906583434731516 45.000000000000000
2.572226665384875 23.102437536331649 -0.972740794066652 47.000000000000000
2.521007649734392 23.060896129704219 -1.040520470380456 35.000000000000000
2.510865194285596 23.055430899325415 -1.098353326739666 27.000000000000000
2.546549845826388 23.072795500228096 -1.170335915042438 7.000000000000000
2.577819175912388 23.050564052997913 -1.236637940561705 1.000000000000000
2.632364796523767 23.955518796394131 -1.379021864733296 0.000000000000000
2.796982183549505 25.105357133597380 -1.543692599641846 7.000000000000000
2.656040708083508 24.290093329410084 -1.551108920456557 7.000000000000000
2.531421321539081 23.249699248659610 -1.519714857691785 7.000000000000000
2.461905635275984 22.323502077244157 -1.506539442852245 10.000000000000000
2.082458130485219 18.690132619476813 -1.555353634417560 9.000000000000000
1.806649499517915 16.259106897521036 -1.565381405327805 8.000000000000000
1.429782925633203 12.936702583123676 -1.546864655280194 8.000000000000000
1.290817135227930 11.712403353269409 -1.584109269070786 7.000000000000000
1.179174071059466 10.728297495285304 -1.588268761814261 6.000000000000000
1.001593452734541 9.162985199546597 -1.586601807343854 6.000000000000000
0.742542243572423 6.682280910888721 -1.599815250657177 6.000000000000000
2.756687586398820 24.173685849494376 0.021860184739688 1.000000000000000
2.756944429698452 23.872263341695430 -0.042827039056484 2.000000000000000
2.685242891962274 23.366007816979163 -0.169746441178821 4.000000000000000
2.632243395387843 23.315143303033111 -0.238446737102430 0.000000000000000
2.617101855249010 23.268187391547301 -0.297346597682341 0.000000000000000
2.645241762258777 23.216461379533399 -0.366541921717131 0.000000000000000
2.667673707055711 23.116667796636165 -0.431156567536128 0.000000000000000
2.624163080213064 23.140707302046422 -0.501399055233521 3.000000000000000
2.656210619560577 23.124450529375039 -0.568352692529062 21.000000000000000
2.609918618912079 23.127661047828013 -0.639102780875247 45.000000000000000
2.603786747200121 23.159255539826688 -0.700335740949732 21.000000000000000
2.631621159417849 23.105971097407647 -0.768150992437938 30.000000000000000
2.663496417442102 23.088800451010599 -0.835341416428562 53.000000000000000
2.619899080440311 23.111360159928694 -0.906425196998704 48.000000000000000
2.649456871943055 23.074076964259746 -0.971541752922291 51.000000000000000
2.598606192122880 23.036672122111185 -1.039529393312324 49.000000000000000
2.591051196096395 23.055035333893429 -1.098998369229324 41.000000000000000
2.624996269266706 23.056418480335793 -1.169836987518219 8.000000000000000
2.664985026465144 23.109350164109287 -1.241900117378001 1.000000000000000
2.919389994367433 25.729430512729351 -1.521517515600822 5.000000000000000
2.736554897655544 24.253532232711436 -1.548821737213619 7.000000000000000
2.610914332859059 23.237345555749101 -1.519448999516601 7.000000000000000
2.540006650578598 22.327225494572630 -1.507710974758027 10.000000000000000
2.148371270239899 18.699124948602986 -1.557200274452178 9.000000000000000
1.861773838646169 16.249343674995330 -1.564930794435520 9.000000000000000
1.473773137375245 12.932213024205709 -1.546913926097121 8.000000000000000
1.330987956844200 11.712311713194595 -1.584871612068926 7.000000000000000
1.215454207623049 10.724692350857197 -1.588309454691735 7.000000000000000
1.031510703411948 9.152276598545939 -1.584804640185564 6.000000000000000
0.763796852233798 6.672686346825586 -1.597342967863943 7.000000000000000
2.839160543576768 23.863077968745245 -0.042922297310436 2.000000000000000
2.767630998001102 23.372951675007030 -0.170309023637503 3.000000000000000
2.740629141954004 23.544611840590136 -0.246287730399552 1.000000000000000
2.694357206173660 23.235663494366037 -0.296596528680081 0.000000000000000
2.722300879759619 23.183836401924296 -0.365722886602270 0.000000000000000
2.812700358993177 23.651409567646667 -0.453685918993587 4.000000000000000
2.710402868815905 23.187538438707890 -0.503951460008552 1.000000000000000
2.733935215503663 23.099753175217700 -0.567696466661117 2.000000000000000
2.694246438753766 23.158649479029719 -0.641194324490441 17.000000000000000
2.681114498066269 23.130765256748916 -0.699372047920498 35.000000000000000
2.709696833762013 23.085311911418401 -0.767575812219773 64.000000000000000
2.743899307078207 23.087876452368832 -0.835901864877063 130.000000000000000
2.698976332842101 23.098685771740193 -0.906270206755596 49.000000000000000
2.728889429774834 23.065263420014702 -0.971635155174441 47.000000000000000
2.679794744685774 23.043883455285865 -1.040703934252454 76.000000000000000
2.669865715556260 23.042471154462731 -1.098805122539437 50.000000000000000
2.703355668787117 23.039761629261605 -1.169343550812474 13.000000000000000
2.750207249458146 23.148007185618255 -1.245644363728103 3.000000000000000
2.777610732259914 23.771409450603173 -1.365915834442309 1.000000000000000
2.971370497913354 25.098258711902119 -1.544876017946313 6.000000000000000
2.824760533963087 24.283986191983146 -1.552322685379697 8.000000000000000
2.692205996345064 23.240540883388903 -1.520588619937661 7.000000000000000
2.619568209817308 22.342518234084309 -1.509976087246332 10.000000000000000
2.212944744149480 18.696041364971336 -1.557718391714077 9.000000000000000
1.918742126295717 16.255141458334492 -1.566533650198538 9.000000000000000
1.517273544999688 12.923649768453345 -1.546326042590816 8.000000000000000
1.371170854731533 11.712086935102462 -1.585635590746195 7.000000000000000
1.252188607788528 10.724858405995846 -1.589136287072863 7.000000000000000
1.062753062791383 9.153067229502639 -1.585756346176429 6.000000000000000
0.787313456929700 6.681869432914851 -1.601116924298102 7.000000000000000
2.921832269756982 23.857567098105406 -0.043114194709914 3.000000000000000
2.792382809957324 23.293379044808944 -0.238509766161896 0.000000000000000
2.773817689375643 23.222729240299259 -0.296548127756242 0.000000000000000
2.809367318974273 23.234282708586917 -0.368095788415563 0.000000000000000
2.897074299179553 23.665822531233488 -0.454766447888499 2.000000000000000
2.788778416890629 23.166617128869873 -0.503518893443634 2.000000000000000
2.817383372691072 23.122343625806707 -0.569296941648296 2.000000000000000
2.773528083042086 23.145719612736812 -0.641090735902863 42.000000000000000
2.759230792357864 23.109945507967268 -0.698832037043494 60.000000000000000
2.793482978075629 23.111968032387225 -0.769671214809150 23.000000000000000
2.826288427925468 23.102515999529899 -0.837402543118413 33.000000000000000
2.777993408096908 23.085742800479579 -0.906118392328492 45.000000000000000
2.807800322509318 23.052190249650380 -0.971477787850475 51.000000000000000
2.761062102192256 23.050819988552263 -1.041879884236266 36.000000000000000
2.748140165514953 23.025665511666887 -1.098334588173853 58.000000000000000
2.785020136186417 23.050560949181133 -1.170899948459951 9.000000000000000
2.823467212710454 23.087387493856738 -1.241783337347967 2.000000000000000
2.808810527509922 23.346538296245996 -1.332781969170064 2.000000000000000
3.065644622609632 25.151590829128438 -1.550232296478573 7.000000000000000
2.774982193248004 23.255317025489759 -1.522783322723130 6.000000000000000
2.697814356070115 22.345686294578826 -1.511154144668752 10.000000000000000
2.277517855809089 18.692726206803826 -1.558239165698855 9.000000000000000
1.975769634780922 16.260736991651740 -1.568138894071036 9.000000000000000
1.561697950458490 12.922771586241623 -1.547017882344556 8.000000000000000
1.409432891536101 11.696092396303413 -1.583529749645840 7.000000000000000
1.287972019193680 10.717110346448550 -1.588395275888344 7.000000000000000
1.093054071682040 9.146018000936948 -1.584877533488052 6.000000000000000
0.808987692791342 6.675891892552528 -1.599895496403856 6.000000000000000
2.868171160995729 23.248364588241387 -0.237447658308156 0.000000000000000
2.852227119090757 23.201579330177253 -0.296223943085400 0.000000000000000
2.891815300691637 23.244739888987567 -0.368952735552892 0.000000000000000
2.967426313478341 23.568926529446770 -0.451263926258697 4.000000000000000
2.873006009553486 23.193009140226394 -0.505199311017995 2.000000000000000
2.899008255315460 23.128805693435325 -0.570147035848699 6.000000000000000
2.851757862487757 23.124581269477417 -0.640590922126404 255.000000000000000
2.842662642882365 23.132462264223449 -0.700609119296292 21.000000000000000
2.873988298663978 23.110580123902011 -0.770212724219110 255.000000000000000
2.904262853652857 23.081200653558440 -0.836798640011810 22.000000000000000
2.858437737338419 23.084403271839136 -0.906708745945375 41.000000000000000
2.889161840735004 23.058671740840637 -0.972609216676364 40.000000000000000
2.838945876409100 23.029734369588212 -1.041168475241695 30.000000000000000
2.826818790114855 23.012551146755285 -1.098148208892907 58.000000000000000
2.864295558240936 23.041277721086686 -1.170996178396877 9.000000000000000
2.902384324991944 23.074019668127150 -1.241577600991177 2.000000000000000
2.896100122554230 23.392568271052085 -1.337311786507340 1.000000000000000
3.157314625790413 25.180863612030734 -1.553620749964424 7.000000000000000
2.856413348639891 23.257926992536198 -1.523930172534915 6.000000000000000
2.777601604833595 22.360426559331088 -1.513423643054553 10.000000000000000
2.343095445123427 18.697073701233606 -1.559650224570499 9.000000000000000
2.031853989013656 16.258258061661138 -1.568720819425918 9.000000000000000
1.606129967040092 12.921737798031927 -1.547711542960140 8.000000000000000
1.450573915245623 11.703393829860858 -1.585732805295826 8.000000000000000
1.324701592085974 10.717022359878698 -1.589225099184431 7.000000000000000
1.124297475069128 9.146592280714088 -1.585831782671918 6.000000000000000
0.830625686038260 6.669842787651604 -1.598674963817912 7.000000000000000
3.003486001166010 23.843835937002922 -0.043123111579889 2.000000000000000
2.962514794221633 23.349820488162862 -0.241166759588439 2.000000000000000
2.937631282656905 23.235679206374712 -0.297859134431186 0.000000000000000
2.976422608458209 23.270762711283297 -0.370421090907178 0.000000000000000
2.946199776873295 23.131884017922957 -0.503016865497518 2.000000000000000
2.978640032953483 23.119127246671880 -0.570250474282801 7.000000000000000
2.921712959310582 23.119020154035212 -0.700496342884252 255.000000000000000
2.950409739250278 23.077225966573224 -0.768977452388967 255.000000000000000
2.984195473235862 23.075460941896267 -0.837134865071216 17.000000000000000
2.938904582403476 23.082774568511695 -0.907304344231305 37.000000000000000
2.968016917134211 23.045066773096778 -0.972454451975407 35.000000000000000
2.919253249840282 23.028184818048004 -1.041810762223411 23.000000000000000
2.906450037796478 23.007082535781080 -1.098525849695399 51.000000000000000
2.944049839332649 23.035681923917849 -1.171388368208729 9.000000000000000
2.982274367438214 23.068279256701032 -1.241983924437247 2.000000000000000
2.990365583944821 23.489662463565651 -1.345962166982617 1.000000000000000
3.242007431034109 25.154460041235794 -1.552421584152524 9.000000000000000
2.943458703150238 23.303727407609784 -1.528936622420247 6.000000000000000
2.858543037269527 22.382774373611980 -1.516422008868624 10.000000000000000
2.408726615904000 18.701188939781261 -1.561063988001350 9.000000000000000
2.088969553222276 16.263446106712308 -1.570330821613320 9.000000000000000
1.650058044833112 12.916632514664300 -1.547768019372376 8.000000000000000
1.489228271748116 11.691033069721982 -1.584348036705486 8.000000000000000
1.361951390311433 10.720695297954506 -1.590841121953044 7.000000000000000
1.156057922772641 9.150913265257017 -1.587703264479251 7.000000000000000
0.853234756125541 6.671223389063641 -1.599954522430500 7.000000000000000
3.133507950127836 23.831467650116736 0.027371130655928 1.000000000000000
3.074158921687217 23.746558846337322 -0.041177853302649 3.000000000000000
3.066007412563899 23.417541297316035 -0.103898972359250 2.000000000000000
3.089974299572535 23.338307877498451 -0.170841632151046 3.000000000000000
3.018608054498906 23.233792281501223 -0.298240052143706 0.000000000000000
3.661386617756956 28.235050945428966 -0.644682759977554 13.000000000000000
3.055052403092691 23.085405073350898 -0.569232053768416 11.000000000000000
3.013611352689998 23.125072316190980 -0.641797976694440 255.000000000000000
3.003306529682455 23.125101534907373 -0.701438591568164 255.000000000000000
3.032951324953849 23.091115593258507 -0.770415668481857 255.000000000000000
3.018865772299367 23.076914663533017 -0.907654995734765 28.000000000000000
3.048398451312878 23.043057709490995 -0.973076711993707 27.000000000000000
3.000623479461343 23.034263735414058 -1.042996655615311 19.000000000000000
2.986071761170233 23.001329730610550 -1.098906827669670 42.000000000000000
3.023794364123799 23.029794247358808 -1.171783929608500 8.000000000000000
3.063218149642146 23.070145969566298 -1.243005856378081 2.000000000000000
3.053403045252523 23.345259174979134 -1.335305961189106 1.000000000000000
3.334487465618003 25.187036860351753 -1.556145528837952 7.000000000000000
3.026696082440110 23.317597842863833 -1.531141929073342 7.000000000000000
2.938620532882025 22.396936677285680 -1.518698271989331 9.000000000000000
2.476529198282631 18.720804938426227 -1.564258693831762 8.000000000000000
2.144557745454780 16.256617225184726 -1.570407006221149 9.000000000000000
1.694492339224953 12.915266377276794 -1.548467294959839 8.000000000000000
1.529382235274924 11.690226009386876 -1.585120352906681 8.000000000000000
1.396629173899946 10.704771541203115 -1.588536736042584 7.000000000000000
1.186821671063884 9.147379855054609 -1.587745544979590 7.000000000000000
0.874825474494329 6.665019506461860 -1.598735792666727 6.000000000000000
3.129370599191120 23.444184742853636 0.106276477081619 0.000000000000000
3.251310100974250 24.082474081875944 0.021892596911170 0.000000000000000
3.174601953723183 23.874945119277371 -0.044552985257722 3.000000000000000
3.149340393007289 23.427087234922055 -0.104534630208898 2.000000000000000
3.171439371254527 23.335881397598214 -0.171186858638158 2.000000000000000
3.124965156017589 23.341621154460285 -0.241771272014977 2.000000000000000
3.096924123605259 23.211807600459792 -0.297925479139194 0.000000000000000
3.136529383278325 23.250579550175971 -0.370632098175917 0.000000000000000
3.103795458197303 23.100035803474555 -0.502701587853510 2.000000000000000
3.140516506927920 23.118718724185726 -0.571404927641404 4.000000000000000
3.093247089249063 23.114991765094942 -0.641907108902038 255.000000000000000
3.084439243614654 23.126929503653074 -0.702173915238515 255.000000000000000
3.112918538966527 23.084922603760276 -0.770744606659810 255.000000000000000
3.067846960371748 23.097126145225289 -0.839117727994863 15.000000000000000
3.099893547686215 23.078682382232486 -0.908501660076855 22.000000000000000
3.130972662184667 23.056580559540521 -0.974734121915155 20.000000000000000
3.082602356045129 23.044002019959123 -1.044456110657614 14.000000000000000
3.066220391261768 22.999256804750075 -1.099571710926944 35.000000000000000
3.103529596584151 23.023630061696409 -1.172182775137737 8.000000000000000
3.133735162648711 23.335039256551212 -1.335414765541664 1.000000000000000
3.422341948045164 25.183717835328679 -1.556921479522103 11.000000000000000
3.111662053667643 23.343011076114237 -1.534402677064299 7.000000000000000
3.015593600217262 22.387124163610778 -1.518801360318836 10.000000000000000
2.540146659662901 18.708684532231004 -1.563902639239426 9.000000000000000
2.201744403786625 16.261400424013857 -1.572021736827693 8.000000000000000
1.737854358406994 12.905944854992754 -1.547888377842706 9.000000000000000
1.567931894061562 11.677595879953316 -1.583738771951926 8.000000000000000
1.433885220607565 10.708180991108023 -1.590155821457235 7.000000000000000
1.218104332901751 9.147623736817479 -1.588703668765348 7.000000000000000
0.897440024059345 6.666267993341080 -1.600016241875087 6.000000000000000
3.332558503261922 24.059647587546721 0.022018083334053 0.000000000000000
3.260646877879434 23.892030211941687 -0.045318223979935 2.000000000000000
3.233325460253011 23.440292578276470 -0.105278884512804 2.000000000000000
3.253480212753796 23.337126278657294 -0.171652721114030 2.000000000000000
3.185561031895475 23.264788859226442 -0.300270442794423 0.000000000000000
3.284810986752555 23.726920840674993 -0.389449093992532 3.000000000000000
3.235322277639993 23.716438030710393 -0.458963959072516 3.000000000000000
3.186065489224598 23.109424989569177 -0.503692090869681 2.000000000000000
3.217314257776837 23.088412280262787 -0.570580394481946 2.000000000000000
3.174495351724133 23.116508187058486 -0.642619169429362 36.000000000000000
3.165067986845946 23.124518497729241 -0.702702271788755 255.000000000000000
3.191212430915459 23.066562677976989 -0.770413079658836 255.000000000000000
3.147857821327918 23.090810611682471 -0.839460705275968 13.000000000000000
3.180415437492953 23.076211224307812 -0.909105297021132 18.000000000000000
3.213117304936555 23.065852580825336 -0.976137031139891 17.000000000000000
3.164681016662612 23.053439085426561 -1.045919395207679 11.000000000000000
3.145838606973413 22.992948633028391 -1.099959309396883 27.000000000000000
3.183808725065073 23.021112312088661 -1.172881618891822 7.000000000000000
3.143116702452311 23.063840598084923 -1.243418825490684 3.000000000000000
3.305514193183833 23.980098152241041 -1.388078700278261 1.000000000000000
3.518005022759329 25.235358862731829 -1.562293302384600 9.000000000000000
3.194648725026265 23.352316630098883 -1.536264524832596 6.000000000000000
3.096950044714175 22.408573482137996 -1.521813727158555 10.000000000000000
2.605935516026573 18.712095758992689 -1.565324677406356 8.000000000000000
2.258431969615522 16.262050303944164 -1.573125948343216 8.000000000000000
1.782273241245677 12.904287709941187 -1.548589363532330 9.000000000000000
1.608611737717486 11.680424948704584 -1.585230605308835 8.000000000000000
1.469531359685514 10.699805748320685 -1.589422200659532 8.000000000000000
1.247763753587157 9.136183195374826 -1.586915187052186 6.000000000000000
0.921158733209296 6.674964058257302 -1.603795918037958 7.000000000000000
3.425642194797791 24.119699764944926 0.020435287036246 0.000000000000000
3.347967555666070 23.916716368082092 -0.046273637805327 2.000000000000000
3.316869083868936 23.449226627063368 -0.105921498260335 2.000000000000000
3.337281564031412 23.349920559198068 -0.172477203364893 2.000000000000000
3.328684019396274 23.697363638738508 -0.316042973613824 6.000000000000000
3.359637561897565 23.668408682363321 -0.387740411683013 1.000000000000000
3.324813261499045 23.760985964614321 -0.461373366263182 6.000000000000000
3.295627700688871 23.308396704537984 -0.513129843549892 7.000000000000000
3.300800713958750 23.105281909901336 -0.572013907878058 1.000000000000000
3.260298047771791 23.149368355753367 -0.644932801019509 15.000000000000000
3.243462084888231 23.105996373221942 -0.702392342540251 255.000000000000000
3.271684728583357 23.063766966979315 -0.770971191272710 20.000000000000000
3.227856331022019 23.084211324149379 -0.839806989911330 11.000000000000000
3.262650333496816 23.085306719452021 -0.910451508751367 15.000000000000000
3.295361270625171 23.074808031309146 -0.977547280821092 14.000000000000000
3.245734774718717 23.054685854530092 -1.046845291747440 9.000000000000000
3.227131048386947 22.998206004525343 -1.101192236463497 21.000000000000000
3.265240249704599 23.026240199386137 -1.174165501770520 6.000000000000000
2.271754224558470 15.898169453189354 -0.875441658642067 0.000000000000000
2.249414180402960 15.963190886238820 -0.929822680918898 0.000000000000000
2.269007642670375 15.934377719005511 -0.973963048267277 2.000000000000000
3.437653215092253 24.409145474080120 -1.570114768030760 8.000000000000000
3.281661920081966 23.388945072407054 -1.540584517913637 7.000000000000000
2.262505167472104 15.894516160928390 -1.248475792120595 2.000000000000000
2.270729816601385 15.956277360014923 -1.534224089619363 6.000000000000000
1.827264996848309 12.906382481551830 -1.549931264851925 8.000000000000000
1.647633102306040 11.671423953438051 -1.584570174643132 8.000000000000000
1.506819329274522 10.702955432222936 -1.591044366598191 7.000000000000000
1.280701854937263 9.147766759869455 -1.590623934239212 7.000000000000000
0.941603033295079 6.661010339440921 -1.600081543121431 7.000000000000000
3.437795785253043 23.956904896862724 -0.047605903293879 2.000000000000000
3.402254440912191 23.469735813294108 -0.106883661249771 3.000000000000000
3.421209066337724 23.362440376555227 -0.173301399049638 2.000000000000000
3.409061470467752 23.678239978531522 -0.315884490144655 2.000000000000000
3.431763011862532 23.593851643047401 -0.385426235493584 2.000000000000000
3.393389790716004 23.658844826353572 -0.457722316730244 7.000000000000000
3.360770003017243 23.194532010347189 -0.508674289399787 1.000000000000000
3.381510345278492 23.102101409797015 -0.572509055983875 1.000000000000000
3.335967135792565 23.110756969077030 -0.643653024649303 7.000000000000000
3.316572411212356 23.051609617341285 -0.700195661819870 14.000000000000000
3.356829401814683 23.092297644493883 -0.773313530285789 8.000000000000000
3.309567338191636 23.089194010440465 -0.840859556317577 13.000000000000000
2.158068663141981 14.810060417086945 -0.609205620600815 0.000000000000000
3.378287123780959 23.087434515694071 -0.979215112357657 11.000000000000000
3.329137674084245 23.071440436513043 -1.048855437643266 7.000000000000000
3.308494543420230 23.003151208735815 -1.102432474028222 14.000000000000000
3.346740229863864 23.031064024516638 -1.175452890778506 5.000000000000000
2.297207936046034 15.697619772780399 -0.858337188294976 0.000000000000000
2.293507113518214 15.884885511326999 -0.923371799087881 3.000000000000000
2.287731633333593 15.686654971333127 -0.951210365068074 1.000000000000000
2.268878498087267 15.564670435702482 -1.212155799371085 1.000000000000000
2.254680890243126 15.474046544414009 -1.472238684186205 2.000000000000000
1.869968451574072 12.892696987885955 -1.548718637569728 9.000000000000000
1.688341346054842 11.673970641739984 -1.586065333315727 8.000000000000000
1.544142932827879 10.705968308054608 -1.592668108742636 7.000000000000000
1.309732487988355 9.132264915311438 -1.587921867319647 7.000000000000000
0.963097549274596 6.654504880169426 -1.598866377124960 7.000000000000000
3.529120501334308 24.004667828184793 -0.049128780069546 1.000000000000000
3.500305240206342 23.572950856217361 -0.110064094009205 2.000000000000000
3.512462245172397 23.422086381446931 -0.175535130813143 2.000000000000000
3.484615893963699 23.627237973374022 -0.314606251912295 5.000000000000000
3.493261748964799 23.451882056717125 -0.380528827514112 2.000000000000000
3.475998152047629 23.655337410062799 -0.458171807536271 2.000000000000000
3.465550980052473 23.349198194305814 -0.516188204336703 4.000000000000000
3.462233067673926 23.098633192232313 -0.573007481782910 4.000000000000000
3.419681411197121 23.127205521011589 -0.645174283286029 6.000000000000000
3.404687276368624 23.099727860523330 -0.703469741431717 9.000000000000000
3.441613093384699 23.116559285264117 -0.775436964484954 5.000000000000000
3.393109109990156 23.105724805455310 -0.842618608092650 9.000000000000000
2.200805726347542 14.751763069754602 -0.605324687236125 0.000000000000000
2.170939495957700 14.746431077996348 -0.649729655126448 0.000000000000000
2.198963509450758 14.785616570782054 -0.695897706693404 1.000000000000000
3.391106297977463 23.015719261406161 -1.104233672224623 10.000000000000000
3.430691196779949 23.051380300367228 -1.177915093875063 4.000000000000000
2.291175754281971 15.300144921651054 -0.823696249588623 0.000000000000000
2.266392984684897 15.337725320917045 -0.873743575628983 0.000000000000000
2.260987748738763 15.151580551125491 -0.901129814763902 0.000000000000000
2.253834141528780 15.109217664234109 -1.161628580260607 0.000000000000000
2.301539311189896 15.427447421424617 -1.467190139372371 2.000000000000000
1.915562364237304 12.898384694332407 -1.550703335104854 9.000000000000000
1.727900378226588 11.668588506042553 -1.586126172511697 8.000000000000000
1.579734128336345 10.697215572820966 -1.591938965185391 8.000000000000000
1.341591241197840 9.135922021898878 -1.589801217647798 7.000000000000000
0.986303067794855 6.659181562962786 -1.601400409122701 7.000000000000000
3.603980983970080 23.707392735824413 -0.114089617940274 1.000000000000000
3.606013265554492 23.493236673017549 -0.178124415006662 1.000000000000000
3.715879243822569 24.595497569722269 -0.349423002372333 1.000000000000000
3.536716619635264 23.199154617958357 -0.371373665452090 0.000000000000000
3.485757355809821 23.173469334042352 -0.438787416823837 0.000000000000000
3.519172634860739 23.163756105316992 -0.508570914829026 1.000000000000000
3.546649209629037 23.118571231757102 -0.574635236187860 3.000000000000000
3.513231641334314 23.206529434670330 -0.649897174432770 37.000000000000000
3.486529705656014 23.104079574884992 -0.704432425670212 7.000000000000000
3.536967559177358 23.207607994424123 -0.781349074367258 105.000000000000000
3.476202487355529 23.118007835959560 -0.844146851556341 6.000000000000000
2.259743624614936 14.799722198381815 -0.609669177257280 0.000000000000000
3.542059057849087 23.096002993792993 -0.981529097093023 6.000000000000000
2.226734831800329 14.774811361778447 -0.652658475100738 0.000000000000000
3.472636362153635 23.020098028449326 -1.105476968121929 8.000000000000000
3.511775845103700 23.051672929678830 -1.178916554713725 3.000000000000000
2.308882307682755 15.072180177683890 -0.804135765746583 0.000000000000000
2.264049099654057 14.975978546005791 -0.841166648370812 0.000000000000000
2.253996322173533 14.771879477953107 -1.124418930698596 0.000000000000000
2.353587805660925 15.415962831494497 -1.466761889360491 3.000000000000000
1.958786242377670 12.888281710053974 -1.550134761660638 9.000000000000000
1.767437578758252 11.663047634991656 -1.586189857736256 8.000000000000000
1.617088249313725 10.699953464464770 -1.593566855043683 7.000000000000000
1.372886893601082 9.135592528637758 -1.590766790803178 7.000000000000000
1.007758789708841 6.652520005049197 -1.600187075797221 7.000000000000000
3.596418430269411 23.279648912644006 -0.303384176494472 0.000000000000000
3.620267038644851 23.210939057147499 -0.372413645537937 0.000000000000000
3.581506576018665 23.264394054306663 -0.443178764137971 0.000000000000000
3.605727857121581 23.195331712251644 -0.510634934145941 1.000000000000000
3.640025132771601 23.193448958396417 -0.578893974775251 3.000000000000000
3.609230226970214 23.297320124858999 -0.655224011789615 17.000000000000000
3.582651216386709 23.198899864895253 -0.710240082539254 131.000000000000000
3.612421635832005 23.168087232304416 -0.779917468023378 255.000000000000000
2.287441906634425 14.788677332677707 -0.565719377875472 0.000000000000000
3.595664364709978 23.138426756071951 -0.917105861664322 4.000000000000000
2.312131092038777 14.804137658595877 -0.610664815975451 3.000000000000000
2.280271072053264 14.787220957420274 -0.654322982782046 0.000000000000000
3.556084942570133 23.036012007602039 -1.107565946975094 5.000000000000000
2.317466341146288 14.797060184265817 -0.780365682520706 1.000000000000000
2.279716772709291 14.744287262739107 -0.820563348413743 0.000000000000000
2.261587803742855 14.491605348893515 -0.839896139745549 0.000000000000000
2.252455051475739 14.438662137281156 -1.087650174561042 0.000000000000000
2.003199602646247 12.885845602485716 -1.550844952889893 10.000000000000000
1.807571738966037 11.661270802464799 -1.586972068472902 8.000000000000000
1.653859357553961 10.698700855174678 -1.594410379420336 8.000000000000000
1.403583143277015 9.131328408644833 -1.590816606868806 7.000000000000000
1.031005131753847 6.657043626628891 -1.602722380340903 7.000000000000000
3.689763438793324 23.350424709395639 -0.306451435656756 1.000000000000000
3.722436326393165 23.336844183830124 -0.377870823541163 1.000000000000000
3.669742926377608 23.303638883758182 -0.445440295553671 0.000000000000000
3.699532156506496 23.269979141448871 -0.514638913858296 2.000000000000000
3.697042093806362 23.332470703275376 -0.657760350708997 11.000000000000000
3.660523035101031 23.174998907006326 -0.709736654174786 255.000000000000000
2.334706233110511 14.761493581563570 -0.564337574875686 0.000000000000000
3.679716927242392 23.153905612639576 -0.918962607231646 1.000000000000000
2.367140099917238 14.824111913148357 -0.612880919238114 2.000000000000000
2.334552111363872 14.803377064619667 -0.656306480809795 3.000000000000000
3.640945051839471 23.059500260369305 -1.110220058571732 3.000000000000000
2.328659850913568 14.549584181661288 -0.759050271897367 1.000000000000000
2.283628354361801 14.449742730276881 -0.794153237750483 0.000000000000000
2.268721422508032 14.224783238029048 -0.815266845609197 0.000000000000000
2.239665713540755 14.050710385758734 -1.044663643383911 0.000000000000000
2.221548948771511 13.943805301841110 -1.276084992362441 0.000000000000000
2.048251797460058 12.887151136981828 -1.552196179321740 11.000000000000000
1.848345031776766 11.663243724096546 -1.588474009096045 8.000000000000000
1.689378647892747 10.689573269538769 -1.593685683207788 8.000000000000000
1.436135965044149 9.138480736022998 -1.593616133477929 7.000000000000000
1.053046791578928 6.653988629277691 -1.602760087316087 7.000000000000000
4.102566395025364 25.452846651697627 -0.535452133078026 0.000000000000000
3.746656700071313 23.202077721349013 -0.711973470791839 117.000000000000000
3.806882062979797 23.356243359995048 -0.792208400169718 1.000000000000000
3.731355088301575 23.184537640995870 -0.850630836955485 1.000000000000000
3.789202876510845 23.322709362364989 -0.930437706751181 1.000000000000000
2.423622825455494 14.851743670398676 -0.615708673079892 0.000000000000000
2.390262368046936 14.827190019349928 -0.658925810555871 3.000000000000000
3.731808276006371 23.118111499511230 -1.115404950063265 1.000000000000000
2.348667787511860 14.365086570853720 -0.743348521960828 1.000000000000000
2.295892327980418 14.218234185571433 -0.773548584405357 0.000000000000000
2.277291027400843 13.977731129738586 -0.792508705362457 0.000000000000000
2.213094864680810 13.596358171104626 -0.994126196203888 1.000000000000000
2.215619044334460 13.615674766066689 -1.234095088292604 4.000000000000000
2.093332102274344 12.888290151287151 -1.553549328200541 12.000000000000000
1.888501706257594 11.661177706863612 -1.589259616785563 8.000000000000000
1.724205864616066 10.676449012791466 -1.592177580966047 8.000000000000000
1.467476050769517 9.137835476907085 -1.594584722679344 7.000000000000000
1.073805325364829 6.643359510537962 -1.600300089147078 7.000000000000000
3.835657578477433 23.244582333606004 -0.715058315081324 12.000000000000000
2.458763279461498 14.711113394446471 -0.517221637637489 0.000000000000000
3.839333685997896 23.341322880063260 -0.860848471780506 0.000000000000000
2.443335961134255 14.793199144528785 -0.568024379315209 0.000000000000000
2.423026165615815 14.713165714233355 -0.650461327938379 0.000000000000000
5.200241447320725 31.223518254504384 -1.426152766365179 19.000000000000000
3.819170338830876 23.152735253369130 -1.118911131257137 0.000000000000000
2.364729051774812 14.164918983772367 -0.726242053036786 1.000000000000000
2.306566695725166 13.986818829640995 -0.752943358930901 0.000000000000000
2.243376927478129 13.495070893584398 -0.983549932998369 7.000000000000000
2.234690197017988 13.448088224507984 -1.213139744084034 2.000000000000000
2.138440749075560 12.889270330555291 -1.554904357659687 11.000000000000000
1.928005708238312 11.655101530682501 -1.589328706134452 8.000000000000000
1.762243404377993 10.682551795403668 -1.594595468971545 8.000000000000000
1.497520245135228 9.129397863108821 -1.593722326475024 8.000000000000000
1.096442824560168 6.643894088922394 -1.601588950015398 7.000000000000000
2.506853474001012 14.691232588995021 -0.516468316339537 0.000000000000000
2.468724355539416 14.639703555516178 -0.557272867101384 0.000000000000000
5.947669203836848 35.122488470090346 -1.351170187243391 23.000000000000000
5.473198180012919 32.453099465990221 -1.404518970949975 25.000000000000000
5.325608972219239 31.308042343129159 -1.432759848327803 14.000000000000000
5.080780705619451 30.244538865877701 -1.454233554450589 16.000000000000000
2.375313151717595 13.941270114553163 -0.707030032195500 1.000000000000000
2.264110442250933 13.338792067376247 -0.733133609950351 0.000000000000000
2.241002845754086 13.209662360912063 -0.952102818890592 1.000000000000000
2.215291794753097 13.065579231162545 -1.163963320977240 2.000000000000000
2.203872327211630 13.003686790486839 -1.385116605902973 3.000000000000000
2.184254192203288 12.893981877289846 -1.556900541894047 10.000000000000000
1.968156859636654 11.652758417250027 -1.590117609150004 8.000000000000000
1.798997798005852 10.680776760398672 -1.595445148280447 8.000000000000000
1.529515474626823 9.132369703399519 -1.595609688874821 7.000000000000000
1.119754346605834 6.648067837577344 -1.604129226303951 7.000000000000000
2.516364857588960 14.455127414835616 -0.500268358362072 0.000000000000000
2.475097473320264 14.384053287674476 -0.538903221169590 0.000000000000000
6.112950603302663 35.353936670322696 -1.364864812212492 9.000000000000000
5.624248476299725 32.658626590008240 -1.418086259057365 13.000000000000000
5.459209123645803 31.435334906568684 -1.442080585477147 5.000000000000000
2.373191226749064 13.654940202594062 -0.682202993852272 3.000000000000000
2.305898229941567 13.426200053426257 -0.702655334070939 1.000000000000000
