# This PCD file was generated using the MATLAB® pcwrite function
# from Computer Vision Toolbox®.
# .PCD v.7 - Point Cloud Data file format
VERSION .7
FIELDS x y z intensity
SIZE 8 8 8 8
TYPE F F F F
COUNT 1 1 1 1
WIDTH 626
HEIGHT 1
VIEWPOINT 0 0 0 1 0 0 0
POINTS 626
DATA ascii
9.219265040815719 -7.018470030604419 -1.972547875819555 9.000000000000000
2.121165604595644 -1.622184890920565 -0.636215430779248 0.000000000000000
44.400196474784131 -34.196793541035618 4.953110324802688 38.000000000000000
44.379501935406331 -34.147640364659360 2.953505679102309 41.000000000000000
44.379843604146352 -34.131480662943744 1.954415912992222 44.000000000000000
44.392147053087868 -33.998340413185552 1.787431665903878 40.000000000000000
37.824293306582668 -29.037786173987492 1.313722454190926 29.000000000000000
37.985074429030917 -29.118490328214492 1.177459175050944 34.000000000000000
38.066866200464460 -29.274874045972958 1.036415835788285 5.000000000000000
44.237388608960551 -34.002690003225261 0.952273856134566 37.000000000000000
37.698643967037782 -29.046092898728858 0.601306009374055 11.000000000000000
37.789156516376352 -28.995854053295012 0.461404019100413 33.000000000000000
37.882002388935575 -29.023347279125829 0.322196045638457 34.000000000000000
37.782993810888463 -29.036755552028012 0.179552397432531 31.000000000000000
37.636663986392001 -29.012528683714223 0.037081311023226 30.000000000000000
37.753577329841903 -28.984055713655643 -0.105171141963456 28.000000000000000
37.612906410943793 -28.964341618540310 -0.245967827862737 30.000000000000000
37.707593160140767 -28.917617953439908 -0.389662537197358 33.000000000000000
37.804772780067502 -28.948637486369748 -0.527272869201018 33.000000000000000
37.697595368795007 -28.955406504301614 -0.669803126217934 29.000000000000000
37.565106856456026 -28.942205346765597 -0.809342118627227 17.000000000000000
39.259713383565213 -30.156368830292983 -1.015776131539218 37.000000000000000
39.234513720995160 -30.231387575057369 -1.164276043245010 41.000000000000000
39.285703548111151 -30.144912883864855 -1.312822627377417 35.000000000000000
39.239738741183118 -30.062479960790540 -1.450122901249879 40.000000000000000
39.235502404336557 -30.153778315467868 -1.604214495005591 36.000000000000000
39.261352337223840 -30.143259294189363 -1.901552649609682 40.000000000000000
39.243504597981435 -30.223901292779253 -2.051107690079413 47.000000000000000
39.295766426061142 -30.138229368579239 -2.199661818066588 38.000000000000000
39.244778688399805 -30.051927936181123 -2.333864264895192 42.000000000000000
39.250925605463728 -30.151375543292360 -2.490764210532798 38.000000000000000
39.278650359144201 -30.268427031611409 -2.644642008577355 38.000000000000000
39.257003224803249 -30.125281048775513 -2.786315155021285 44.000000000000000
39.208988648667429 -30.182053540653840 -2.932295304282623 42.000000000000000
39.312376912015232 -30.136838310936014 -3.087212521238169 40.000000000000000
39.285434339958883 -30.164355489679245 -3.379777714239379 39.000000000000000
39.298516026225634 -30.269547654004199 -3.533287554148269 40.000000000000000
3.472146709532706 -2.666728104831307 -0.325948167382283 0.000000000000000
39.281190382042119 -30.224683153690279 -3.825600511100269 43.000000000000000
39.047260734898657 -29.913991419752151 -3.943505650327779 61.000000000000000
3.178898564062524 -2.439557685853813 -0.331356751539293 0.000000000000000
32.673312996228169 -25.024154405011672 -3.588231243641308 35.000000000000000
32.361550738581478 -24.858233101757712 -3.680433499309789 10.000000000000000
30.973232887501744 -23.835130119383820 -3.619532937745774 10.000000000000000
29.525611883316095 -22.758687644818650 -3.548179945747433 12.000000000000000
28.067310714187091 -21.556369571130702 -3.445111142460373 6.000000000000000
24.362970886292057 -18.730698558649891 -3.117674757726821 3.000000000000000
3.043424504463383 -2.343220463868221 -0.392612360915543 0.000000000000000
2.948677406247276 -2.265380147842706 -0.443532674067205 0.000000000000000
2.808878129635444 -2.159539285480662 -0.478040726529050 0.000000000000000
2.829688176430088 -2.180095847449692 -0.558284413915366 0.000000000000000
9.191810322972081 -7.050114161135753 -1.973051814360479 10.000000000000000
0.430778556964372 -0.332465434240902 0.056189784798704 0.000000000000000
44.379575132593772 -34.398653221920931 2.957784628426347 43.000000000000000
44.373744857414721 -34.377560166897410 1.955737838948692 44.000000000000000
37.550872115424468 -29.034915380853462 1.308063613344429 31.000000000000000
37.708083159610766 -29.113740871012894 1.172368943203725 32.000000000000000
37.845877114665917 -29.314971037088192 1.032739209839940 4.000000000000000
44.250553880755412 -34.263171665339684 0.951168120039498 39.000000000000000
44.245280504570552 -34.116234182673708 0.786476419289730 45.000000000000000
37.525182345783236 -29.000337775099624 0.459555372750430 32.000000000000000
37.620925043103362 -29.030688667879069 0.320923686792417 34.000000000000000
37.518926726728345 -29.041044029452948 0.178905580189762 30.000000000000000
37.473978942275401 -28.975915214290474 -0.104350479801285 30.000000000000000
37.346108960995416 -28.965439513961321 -0.244731754529383 30.000000000000000
37.437576117206874 -28.916908688364181 -0.387738697360219 34.000000000000000
37.525108644144943 -28.940875193248765 -0.524488198703620 35.000000000000000
37.418126468059548 -28.947032938595711 -0.666341632551167 29.000000000000000
37.310924352115869 -28.953066213539643 -0.806095623370847 18.000000000000000
39.261024469325875 -30.379696698947690 -1.022227450287096 42.000000000000000
39.238569540191577 -30.457268296409772 -1.171276067910148 42.000000000000000
39.287115739867879 -30.368245779293559 -1.320109746696390 36.000000000000000
39.244480223998018 -30.288094425465971 -1.457948128694870 49.000000000000000
39.230406561101418 -30.372069033276233 -1.611969301834344 41.000000000000000
39.274717408027357 -30.279890558545553 -1.757714170978363 43.000000000000000
39.262603769736721 -30.366507541160971 -1.910479717774403 45.000000000000000
39.247472954635015 -30.449720848002443 -2.060654154957506 48.000000000000000
39.297084146782986 -30.361502937774524 -2.209424392299832 41.000000000000000
39.236906190787543 -30.267545639052827 -2.343317807105418 41.000000000000000
39.236331500886344 -30.362175995888165 -2.500129613957307 41.000000000000000
39.276030168357494 -30.489386226229747 -2.655372277120532 38.000000000000000
39.258177358559770 -30.348401866546084 -2.797710511456317 44.000000000000000
39.222326538577136 -30.415082101478603 -2.945199878339169 40.000000000000000
39.313548085437603 -30.360048439041933 -3.099443783120486 39.000000000000000
39.163873704201706 -30.195207664909248 -3.223568457651827 38.000000000000000
39.286270502321237 -30.387556953233826 -3.392810819969520 38.000000000000000
39.289487020223845 -30.485480661998594 -3.545765188540983 38.000000000000000
3.468322131571179 -2.686708629678137 -0.328159116832107 0.000000000000000
39.278584632909663 -30.445408268921362 -3.839521777243275 42.000000000000000
39.317729839926123 -30.348704572150069 -3.988951465877267 36.000000000000000
3.173005015508494 -2.455768183657554 -0.332991217201864 0.000000000000000
32.299268055607044 -24.912092917714460 -3.554322322782775 8.000000000000000
32.128510404593044 -24.856409882418887 -3.663609240841544 13.000000000000000
30.896228086025054 -23.950063050740383 -3.622486429872302 12.000000000000000
28.088155013573822 -21.733299493802704 -3.460695740177177 7.000000000000000
3.024204240703452 -2.344877810907448 -0.390343880493552 0.000000000000000
2.924382303278961 -2.261076185660755 -0.439304639344715 0.000000000000000
2.798448684549502 -2.168836506438325 -0.478191255833757 0.000000000000000
2.805883344602067 -2.175403634309944 -0.553395744544098 0.000000000000000
9.176138987402110 -7.091864774378308 -1.976779816790954 7.000000000000000
2.117534911010833 -1.634769048495343 -0.639009197964871 0.000000000000000
44.401512419476930 -34.701569955286345 4.972934081803406 34.000000000000000
44.375308883947113 -34.647597569449097 2.961885023498101 42.000000000000000
44.385218734384324 -34.638984303568762 1.957663472105728 42.000000000000000
37.549180499565132 -29.155135600509638 1.448300626359509 35.000000000000000
37.287303254532233 -29.037990373811560 1.302627503674328 30.000000000000000
37.444087362768769 -29.117407073671849 1.167521475377839 32.000000000000000
44.262434436896065 -34.524167779285506 0.950054578591190 37.000000000000000
44.239114316104320 -34.362004931006879 0.784747642079899 41.000000000000000
37.255384634862061 -28.998350325950625 0.457740034044378 32.000000000000000
37.341499225641435 -29.021600295582346 0.319772669791955 34.000000000000000
37.242798004424884 -29.033855300876219 0.178395247755729 33.000000000000000
37.363492485714282 -29.008605827488793 0.037170022290253 31.000000000000000
37.216765036107667 -28.983676232548689 -0.103869054028966 28.000000000000000
37.082881244887659 -28.967540678279271 -0.243535468421628 27.000000000000000
37.171147747400560 -28.917172979501025 -0.385866161523251 35.000000000000000
37.264714549515887 -28.946489182452467 -0.522200097296556 35.000000000000000
37.151663661857711 -28.947065818131911 -0.663250770178107 28.000000000000000
37.013462472945115 -28.927475307076861 -0.801273352295698 16.000000000000000
39.264372975673339 -30.605912380465185 -1.028808518157954 40.000000000000000
39.290566372146714 -30.594457713354593 -1.327549137342598 38.000000000000000
39.241869220895914 -30.509133332861019 -1.465464202667230 45.000000000000000
39.230501295333475 -30.595692842301183 -1.620068816407762 37.000000000000000
39.275314871849432 -30.503430076968534 -1.766227324842868 38.000000000000000
39.262769472766536 -30.590147377715894 -1.919413764063505 41.000000000000000
39.240983482751226 -30.668453199082279 -2.069590881215679 41.000000000000000
39.291070895994672 -30.580180910978747 -2.218758406037015 35.000000000000000
39.240492118580846 -30.493440552996944 -2.353689023992934 43.000000000000000
39.242569639209940 -30.590703034727824 -2.511182043507186 39.000000000000000
39.264504810512094 -30.576893872292366 -2.809640883825216 38.000000000000000
39.225163594068881 -30.641098518053198 -2.957284613286927 38.000000000000000
39.313633823182002 -30.583643000768028 -3.111680826219129 38.000000000000000
39.201870315322317 -30.448059553670760 -3.239759192419289 42.000000000000000
39.289136406578862 -30.613630531628843 -3.406160523033422 37.000000000000000
39.291868219869549 -30.711694946267116 -3.559536439264924 40.000000000000000
3.461620893816857 -2.703904659415599 -0.329695511017284 0.000000000000000
39.274910277497149 -30.666492767609569 -3.853448429942214 41.000000000000000
39.317669670412023 -30.572165207918964 -4.003648365631628 34.000000000000000
3.147857464937776 -2.452230077565687 -0.329502215296631 0.000000000000000
33.184848216411019 -25.913819308904948 -3.562824716067762 3.000000000000000
31.908287154302091 -24.863243054532617 -3.648382536573634 16.000000000000000
30.911735668884521 -24.139633192475614 -3.637916875446957 16.000000000000000
29.703665538102047 -23.070154999127851 -3.585766352183414 8.000000000000000
28.086446436159356 -21.893163116444526 -3.473213408273867 9.000000000000000
3.013134901526764 -2.354925460904823 -0.390506250171005 0.000000000000000
2.851858645608627 -2.226544957800925 -0.422944359658695 0.000000000000000
2.790645404475034 -2.180931353351042 -0.479284688270782 0.000000000000000
2.784792738290950 -2.173403703235309 -0.549513234944516 0.000000000000000
2.111373158396860 -1.644507151318336 -0.640462336022693 0.000000000000000
44.376069783311536 -34.901940450827986 2.966324813593215 40.000000000000000
44.379817752169799 -34.888385039359896 1.959075787624156 40.000000000000000
37.266737029251487 -29.142860934118175 1.441811469014818 37.000000000000000
37.021052570608816 -29.037082357986911 1.297149250380632 30.000000000000000
37.180523364520255 -29.119596149186712 1.162697582484877 33.000000000000000
37.382656299508071 -29.374062200970613 1.025145175643685 2.000000000000000
44.284193918601389 -34.687073119726193 1.120028756403284 29.000000000000000
44.269907990400633 -34.783161130191061 0.948904112617224 38.000000000000000
44.241137902897449 -34.615658447844574 0.783068618849812 44.000000000000000
36.982939629653544 -28.992336554464359 0.455954021313834 33.000000000000000
37.081298518662763 -29.025963778522616 0.318547838410631 32.000000000000000
36.976516819555002 -29.032635823354724 0.177824697019131 29.000000000000000
37.100162345405657 -29.010646086589716 0.037164050895307 31.000000000000000
36.941259913041840 -28.974955593793801 -0.103052107030902 30.000000000000000
36.813869146584864 -28.963143011159055 -0.242187628416374 28.000000000000000
36.905172422010502 -28.915940743894012 -0.383969621679801 34.000000000000000
36.995385273206679 -28.943134502220879 -0.519627324566343 32.000000000000000
36.882541853242287 -28.943093468882694 -0.660036850515715 29.000000000000000
36.741511872701558 -28.920285616883540 -0.797313155803890 22.000000000000000
39.247926746415487 -30.817490267475634 -1.034658035967127 37.000000000000000
39.238401219791193 -30.681054462427362 -1.178147646173087 43.000000000000000
39.286679199182295 -30.816064318044909 -1.334701320702970 35.000000000000000
39.241303857293779 -30.733035063433697 -1.473143513286482 42.000000000000000
39.232619441968026 -30.822203383692937 -1.628344020719034 36.000000000000000
39.277941365322057 -30.729845237261870 -1.774926697374464 39.000000000000000
39.268072695967497 -30.819175771694745 -1.928740861156791 40.000000000000000
39.296459473244816 -30.809201127437092 -2.228966849209252 39.000000000000000
39.246087215108616 -30.722238571910246 -2.364294719805775 40.000000000000000
39.244574338766014 -30.817148753753600 -2.522000269292043 39.000000000000000
39.281683813894929 -30.718189643282493 -2.666863367059964 39.000000000000000
39.260377702335532 -30.798305982653304 -2.820785064153478 45.000000000000000
39.233107274474868 -30.872524119456365 -2.969927029821066 40.000000000000000
39.312631458364443 -30.807617143802595 -3.123923573344276 37.000000000000000
39.207461566973770 -30.676589385161513 -3.252970929441963 39.000000000000000
39.287789622503013 -30.837603515237589 -3.419205246625523 38.000000000000000
3.435477936547100 -2.701427685521523 -0.326507305042965 0.000000000000000
39.282575517253079 -30.897934718172174 -3.868764893649819 43.000000000000000
39.319629193846048 -30.798498000462416 -4.018709084069986 35.000000000000000
3.139147194220726 -2.465539552748623 -0.330403458818264 0.000000000000000
33.125228086654680 -26.056570300191993 -3.568840946061163 3.000000000000000
31.688407506319461 -24.868853248633592 -3.633136248084511 16.000000000000000
31.556504644887198 -24.840960328644876 -3.738258845748623 3.000000000000000
29.663346712052729 -23.208189953291580 -3.593397848560237 9.000000000000000
28.117888399156886 -22.080882911804522 -3.490566402415836 10.000000000000000
2.975032598989556 -2.336553994596045 -0.382558595947374 0.000000000000000
14.155429064235209 -11.124546350622253 -2.301269309755666 9.000000000000000
2.766386928066376 -2.174108121721162 -0.546636973133563 0.000000000000000
2.112530570220501 -1.662802914610637 -0.645937586303105 0.000000000000000
44.404992148291569 -34.958345611249577 4.983306423583639 34.000000000000000
44.384909067314844 -35.164269837013713 2.971272189293322 40.000000000000000
44.373211987989386 -35.138184988059486 1.960480883365427 42.000000000000000
37.006607279471368 -29.146577974880280 1.435889675178927 38.000000000000000
36.752153149883419 -29.032155129788507 1.291630447534287 31.000000000000000
36.914290398670978 -29.117793574928321 1.157843115410819 31.000000000000000
37.097096273513095 -29.357592565324751 1.020639114705873 2.000000000000000
44.288546900536154 -35.052704805508569 0.947866571209765 37.000000000000000
44.238809512709366 -34.867243809634978 0.781364198765475 46.000000000000000
36.732744458547621 -29.002404678860508 0.454157844325301 33.000000000000000
36.818411955545308 -29.026358548445145 0.317362861305464 30.000000000000000
36.720011360819001 -29.037480067199169 0.177193458060934 31.000000000000000
36.846602727223207 -29.018763998030344 0.037059517589593 29.000000000000000
36.681800718440506 -28.977272179190599 -0.102471583569642 32.000000000000000
36.560852748135147 -28.969848887929757 -0.241136259521999 31.000000000000000
36.636549064313790 -28.910691630965076 -0.381971950737818 36.000000000000000
36.726532315886814 -28.938263811909124 -0.517030369895960 36.000000000000000
36.620108644933069 -28.942639900162817 -0.656996287313961 33.000000000000000
39.236688470162470 -31.034370283342938 -1.040757697659184 34.000000000000000
39.240254017529246 -30.907730135572230 -1.185159650256172 43.000000000000000
39.294145927093425 -31.048078378084817 -1.342444849463855 34.000000000000000
39.239647877415507 -30.957313669229947 -1.480828494535436 42.000000000000000
39.239835225802793 -31.054139518936068 -1.636964291377809 36.000000000000000
39.282568530827930 -30.959176996242370 -1.783815118610344 35.000000000000000
39.266040851432010 -31.043592684125052 -1.937686606325247 40.000000000000000
39.239657717701789 -30.892536696800974 -2.078943510877378 42.000000000000000
39.306931841808584 -31.043658174020337 -2.239615459987871 38.000000000000000
39.235030430268523 -30.938901860503911 -2.373763932467575 42.000000000000000
39.245470014223407 -31.043983795242042 -2.532823258399096 41.000000000000000
39.276894987639125 -30.939896071569500 -2.677604860976643 39.000000000000000
3.472266353912830 -2.740220830378149 -0.246552814748035 0.000000000000000
39.227516534018051 -31.094324801859742 -2.981472067750845 41.000000000000000
39.313640264216566 -31.034468093954828 -3.136458768620118 39.000000000000000
39.205724172146255 -30.900524065767549 -3.265590894872488 40.000000000000000
39.288449486580717 -31.064453972152634 -3.432565548574439 37.000000000000000
38.374456176150545 -30.418423292599179 -3.491205985493001 8.000000000000000
38.423444452532770 -30.332290816443802 -3.637910123167010 2.000000000000000
38.357827884365022 -30.373844150789786 -3.779852786925106 9.000000000000000
38.443653184234300 -30.316477619950511 -3.932375140976771 3.000000000000000
3.111341782137026 -2.458945277297474 -0.326178776621011 0.000000000000000
33.213095172987430 -26.320067802403884 -3.593166108776043 29.000000000000000
31.465792363238151 -24.870729178378312 -3.617465438845770 15.000000000000000
29.625506232884113 -23.348751071750854 -3.601458607353971 7.000000000000000
28.034551962324283 -22.175879388355028 -3.491668858567939 4.000000000000000
2.974747868441015 -2.357819900452455 -0.385962576510337 0.000000000000000
2.857218512120647 -2.253066707366401 -0.428363395360235 0.000000000000000
2.743190686457142 -2.170819909943731 -0.470144857430145 0.000000000000000
2.758527053857614 -2.186097128087198 -0.547793614794933 0.000000000000000
44.404118615931289 -35.213071802869202 4.993358198710719 33.000000000000000
44.380064880148566 -35.416991533816542 2.975525445995722 41.000000000000000
44.380895746389811 -35.401004353355589 1.962385453766003 38.000000000000000
36.737598699852015 -29.141270700010580 1.429759491983635 36.000000000000000
36.496130112779710 -29.035838934970961 1.286396646527035 29.000000000000000
36.648521007945192 -29.114498386254958 1.153012456673334 32.000000000000000
44.277929469754049 -35.300072218079890 0.946548547573577 41.000000000000000
44.182452703330306 -35.076401079283798 0.779337677400653 50.000000000000000
36.467432150777896 -28.998452615120321 0.452409253804398 34.000000000000000
36.546673158194018 -29.017699238685601 0.316251916655458 33.000000000000000
36.448439853563094 -29.028243996636569 0.176727505516670 31.000000000000000
36.574828057897527 -29.010322037931005 0.037220466983356 30.000000000000000
36.425871715463529 -28.980671704710154 -0.101920342934782 32.000000000000000
36.295860030677062 -28.965008544761702 -0.239804034632921 28.000000000000000
36.387006106899463 -28.919103592243886 -0.380408536525267 35.000000000000000
36.476761374929872 -28.947040354598734 -0.514934276368820 34.000000000000000
36.367414931567964 -28.948317504923551 -0.654231929962003 34.000000000000000
36.482465461254563 -28.921658056300572 -0.793773258774794 19.000000000000000
37.267027666752291 -29.653628777504892 -0.968949503407297 10.000000000000000
39.234792626904721 -31.129757975017540 -1.191907801332621 45.000000000000000
39.288073187654568 -31.270432283435333 -1.349608246851774 35.000000000000000
39.252391738755904 -31.194587207163885 -1.489309946321485 45.000000000000000
39.236620175154265 -31.278931287119164 -1.645081396525668 32.000000000000000
39.276768755879012 -31.181358919051306 -1.792163788025621 37.000000000000000
39.266010495598486 -31.270905789645290 -1.946831921926836 37.000000000000000
39.240340201714368 -31.119512613864572 -2.088507373329043 41.000000000000000
38.393545633104459 -30.526721377399518 -2.185399500327916 5.000000000000000
39.235319694285025 -31.165958570421118 -2.384152653259038 42.000000000000000
38.323708678816189 -30.518579558125957 -2.471853975648717 2.000000000000000
38.410025635118004 -30.461749497201275 -2.618142526023691 1.000000000000000
3.473643323248385 -2.765970241214134 -0.249770344552536 0.000000000000000
38.281857284961418 -30.548414577294920 -2.909064686003223 17.000000000000000
38.289623295123569 -30.427766299403778 -3.053607233882227 26.000000000000000
39.205988475977101 -31.127347918159181 -3.278515667042483 44.000000000000000
38.256194851413696 -30.449404058635601 -3.341942470238013 21.000000000000000
3.445217705832936 -2.735464503669817 -0.332092945283909 0.000000000000000
38.128299010283278 -30.408683065405377 -3.768451874014892 21.000000000000000
38.211074116401377 -30.349385417635986 -3.920155334862855 21.000000000000000
3.091746500606952 -2.460746776896329 -0.324148775319768 0.000000000000000
33.099561544079563 -26.420181644695411 -3.592700617222163 3.000000000000000
31.249702410453828 -24.876414693235439 -3.602585095267532 13.000000000000000
31.352674215639219 -24.857318854349515 -3.724589395510365 8.000000000000000
29.725458831913116 -23.602780009606036 -3.628806473853629 9.000000000000000
28.067434625796498 -22.366719378422047 -3.509470320007305 6.000000000000000
2.915394786450680 -2.316272110141952 -0.371519944290123 0.000000000000000
2.838479809109680 -2.253950734028336 -0.425882645029359 0.000000000000000
13.972293972190467 -11.137423850920030 -2.282953053768352 3.000000000000000
2.727033536774399 -2.172424482902017 -0.539872128766382 0.000000000000000
2.103801736024639 -1.669672852877724 -0.646049734269431 0.000000000000000
44.378008493654136 -35.656701782195469 1.963979963234424 38.000000000000000
36.472168363373484 -29.136980319206529 1.423731687694972 38.000000000000000
36.228169604502682 -29.027939792426110 1.280924461702148 31.000000000000000
36.386312274056536 -29.112246341612824 1.148260435239730 32.000000000000000
44.287991839008569 -35.456397512068428 1.117887957196174 31.000000000000000
44.287764607905217 -35.565562075950211 0.945435441370445 36.000000000000000
44.007468342098313 -35.189422818372357 0.776611252661018 53.000000000000000
36.205683624211559 -28.995552407227720 0.450679034497272 33.000000000000000
36.293987798234674 -29.022733747392643 0.315064346242855 33.000000000000000
36.192815808944879 -29.030192458685406 0.176141478466567 29.000000000000000
36.315930378655054 -29.010493842536683 0.037243212183114 30.000000000000000
36.167275476524665 -28.980107926484486 -0.101293724670716 29.000000000000000
36.034430664208230 -28.961234182577464 -0.238513636105543 27.000000000000000
36.122397648951846 -28.913444192689013 -0.378441011595736 36.000000000000000
36.208829585379782 -28.939205737087676 -0.512289028283074 35.000000000000000
36.105865137505681 -28.944970147902183 -0.651146184756326 31.000000000000000
36.223855974693308 -28.921585802162213 -0.790210266682304 17.000000000000000
37.185180266612974 -29.803353247596860 -0.971987510428683 7.000000000000000
39.237533332332532 -31.359723880639855 -1.199065162892113 45.000000000000000
38.286142200908841 -30.676360872952735 -1.309393161889481 20.000000000000000
38.330837996028478 -30.666641794130392 -1.449977003683913 4.000000000000000
38.254101458055715 -30.699094435570835 -1.599159550023315 16.000000000000000
38.308677785208474 -30.616234852031440 -1.743859297057614 16.000000000000000
38.212310564055784 -30.633597812353408 -1.889767512166550 23.000000000000000
38.256811041143152 -30.542373703905930 -2.032632677182741 3.000000000000000
38.175849110576372 -30.571376437053537 -2.179890184811248 23.000000000000000
38.286570482085772 -30.615911598108013 -2.324271508175938 17.000000000000000
38.161585650036251 -30.608556283640105 -2.469860457540279 21.000000000000000
3.368986327248082 -2.706585527707745 -0.232557954409199 0.000000000000000
38.112761355358103 -30.537411708835734 -2.757365624493568 24.000000000000000
38.021167969364654 -30.557038261407165 -2.897631771598628 27.000000000000000
38.029141958151548 -30.436759542526154 -3.041587392712318 27.000000000000000
38.255063146105286 -30.575660396300478 -3.199230681785619 19.000000000000000
37.977266115237001 -30.442970993318539 -3.326910662764070 23.000000000000000
38.144754727528081 -30.453198441622689 -3.480717319031212 21.000000000000000
3.424551592864872 -2.738494377386559 -0.330252798067627 0.000000000000000
37.865154849104137 -30.414444040902396 -3.753219524478688 24.000000000000000
3.061375001645121 -2.451014295531280 -0.319187142309064 0.000000000000000
32.078171403907497 -25.661828790479419 -3.593035350625610 3.000000000000000
31.040090232870693 -24.885970145784562 -3.588495304628024 12.000000000000000
31.152185394989338 -24.875103211734917 -3.711319680924212 10.000000000000000
29.701305759262702 -23.756535709594772 -3.639019100967682 7.000000000000000
28.077913394941209 -22.540283900945582 -3.524201551637984 6.000000000000000
2.928445696399509 -2.351719599238720 -0.378978330962195 0.000000000000000
2.809165285078283 -2.243300031995673 -0.419888821786389 0.000000000000000
2.719585799459861 -2.186048285132159 -0.469493888504313 0.000000000000000
11.299786444689019 -9.059218311075540 -2.039177954627973 6.000000000000000
2.102351816168890 -1.685141004310822 -0.650184656252657 0.000000000000000
44.377080929993170 -35.672652258791587 2.979944153486024 38.000000000000000
44.108838270420463 -35.693688316488661 1.956906908869015 33.000000000000000
36.222633081178998 -29.143941230452661 1.418110892726545 39.000000000000000
35.979189576619831 -29.033839407311653 1.275867193743267 28.000000000000000
36.133807990784298 -29.116186419491768 1.143691387584789 30.000000000000000
42.133223642746600 -33.939093102208346 1.087890743850846 1.000000000000000
44.135951429194115 -35.699059253117731 0.942761257164916 34.000000000000000
42.152050641564678 -33.918954870434874 0.763975103604758 3.000000000000000
35.956723680874340 -29.001390952785336 0.448949672419282 33.000000000000000
36.044793210619304 -29.028925238728206 0.313880769585904 32.000000000000000
35.931463562093455 -29.025613704011100 0.175636257263904 31.000000000000000
36.045140575822600 -28.999033681956746 0.037452380409542 31.000000000000000
35.909125203963534 -28.978096484887132 -0.100642931647215 29.000000000000000
35.867515118825331 -28.913948884599826 -0.376679413300494 35.000000000000000
35.959888069504117 -28.945160990980348 -0.510147924756034 34.000000000000000
35.850937048261244 -28.945265833218031 -0.648236798450252 32.000000000000000
35.981106751047662 -28.932800766760174 -0.787181964682672 21.000000000000000
37.056546561095651 -29.914621703726851 -0.973166613501019 69.000000000000000
38.221288669817547 -30.750827559460191 -1.161598355150632 19.000000000000000
38.000443570457691 -30.664125536039222 -1.303105336202181 20.000000000000000
38.125147342407310 -30.720830334536409 -1.447166901737405 20.000000000000000
37.971508049373007 -30.689136228334640 -1.591703941423710 18.000000000000000
38.044602490980665 -30.622106075820618 -1.736847799128904 22.000000000000000
37.929921643401684 -30.623639906457051 -1.880984959973751 23.000000000000000
38.110117038082038 -30.644747009687357 -2.032267573843862 25.000000000000000
37.912128475721879 -30.576726157344098 -2.171092043957791 23.000000000000000
38.022574995066506 -30.621712775508186 -2.314919115858615 24.000000000000000
37.885534896800635 -30.603539112140467 -2.458927582984444 23.000000000000000
37.956538242073556 -30.535099640463798 -2.603140389967151 25.000000000000000
37.843104453914258 -30.537467487646964 -2.745687545862371 25.000000000000000
37.836729574963627 -30.500219160214726 -3.035892388269345 24.000000000000000
37.994387099838946 -30.584075004049495 -3.186651632793843 29.000000000000000
3.196979244150631 -2.572654268455111 -0.283505888482162 0.000000000000000
37.878363986835751 -30.456315945030177 -3.466330519462014 23.000000000000000
3.342381260434865 -2.701524474852150 -0.316434561858068 0.000000000000000
37.771141597325368 -30.558658534633956 -3.757038233718502 22.000000000000000
3.020348176990442 -2.429635141436506 -0.311292106132968 0.000000000000000
37.816318281749858 -30.423067469188425 -4.037631821506685 11.000000000000000
33.111493399216101 -26.623923957254704 -3.607880935693577 3.000000000000000
33.094201548613761 -26.693489607858034 -3.737207560200002 22.000000000000000
30.948891009531838 -24.889263358253608 -3.697615843055357 10.000000000000000
28.044828304327247 -22.678485201901623 -3.532779708744224 5.000000000000000
2.904046589504338 -2.347055762847404 -0.375077707005186 0.000000000000000
2.809000280879124 -2.264092324593264 -0.423551813225803 0.000000000000000
13.795645559884326 -11.153505168133677 -2.265809905932274 3.000000000000000
2.726986336258862 -2.192869629907861 -0.544053233542725 0.000000000000000
44.221959466525789 -35.803919511788052 2.975962088847759 36.000000000000000
43.796927707870069 -35.693418199266368 1.948449230198186 36.000000000000000
35.970416285352144 -29.146968796248736 1.412435451933532 37.000000000000000
35.727535970299535 -29.035803728656127 1.270766997805906 28.000000000000000
35.875572543292158 -29.113608070138170 1.139037793711314 32.000000000000000
35.816383192231562 -29.154973716341480 1.000912838147480 15.000000000000000
43.987735153285726 -35.725404615523800 1.112401576922601 28.000000000000000
35.797995476124790 -29.110552303517245 0.723723821949720 21.000000000000000
43.413446753947007 -35.211458823201163 0.769770441867305 56.000000000000000
35.695872175918957 -28.995610928284862 0.447265616627803 31.000000000000000
35.771409923150856 -29.013259848151272 0.312858076394163 34.000000000000000
35.682860972451600 -29.029833595840060 0.175037370158734 33.000000000000000
35.805620223560680 -29.011628599139030 0.037275798538459 32.000000000000000
35.660641634401557 -28.982340900392416 -0.100129126330304 30.000000000000000
35.782697351728146 -28.963666355815121 -0.237393812409285 28.000000000000000
35.616140299458500 -28.915597603264061 -0.374971853499587 33.000000000000000
35.708271621676438 -28.947183368171871 -0.507896895159284 33.000000000000000
35.605653345932971 -28.951835274993790 -0.645604857320388 32.000000000000000
35.720272947667702 -28.927345617305114 -0.783462078061205 20.000000000000000
37.781172576385316 -30.737235582008836 -1.008751789018874 20.000000000000000
37.932526715415456 -30.735430239542374 -1.155848373952403 22.000000000000000
37.807443534326332 -30.727022741259162 -1.301216573831907 20.000000000000000
37.851959784979570 -30.717715904108076 -1.440848887702100 23.000000000000000
37.756945826252348 -30.733930706856100 -1.587981192374186 21.000000000000000
37.811681601401688 -30.652059945603398 -1.731638187145613 23.000000000000000
37.780028953968234 -30.722103415647496 -1.880542595008449 24.000000000000000
37.843295419280622 -30.646974495324542 -2.023852694113728 25.000000000000000
37.802318264774044 -30.708383668344382 -2.173180778360971 21.000000000000000
37.792774143643719 -30.654150041905524 -2.308065170466409 24.000000000000000
37.757141288318138 -30.719757508390551 -2.459559524251880 19.000000000000000
3.319785575224381 -2.703243103322777 -0.227459406785346 0.000000000000000
37.739492944741762 -30.673994828055882 -2.748299268786996 23.000000000000000
37.776239797818320 -30.576965797999840 -2.887558408954463 26.000000000000000
37.708738483779868 -30.616303931450567 -3.036244765892255 24.000000000000000
37.767854168299152 -30.619108097002794 -3.177346779283297 26.000000000000000
3.176997895744603 -2.574702211381052 -0.281650184910443 0.000000000000000
37.768844437392339 -30.587857631334948 -3.468412621582493 24.000000000000000
37.690316492530712 -30.618891275799037 -3.614128397465046 24.000000000000000
37.652111088108661 -30.682161634517747 -3.758076488578165 27.000000000000000
3.019697308777396 -2.451165228597716 -0.314385069238651 0.000000000000000
37.722159412765059 -30.567122877097361 -4.041556538231667 11.000000000000000
33.055113034181979 -26.771992685083070 -3.614664503218024 2.000000000000000
33.074179816222021 -26.872173828076221 -3.748864103652709 23.000000000000000
30.745876799349524 -24.902318783184334 -3.683894292451389 13.000000000000000
28.035436997036598 -22.837235868359244 -3.544878991737598 4.000000000000000
2.882362191629812 -2.345145203597028 -0.371986670504358 0.000000000000000
24.588758114082843 -19.915282920856555 -3.235400838093260 15.000000000000000
2.777157839913375 -2.250326846252520 -0.416676029542604 0.000000000000000
2.706443267714193 -2.192153734070757 -0.468695187965040 0.000000000000000
2.685113198616095 -2.187843087218980 -0.536271874767037 0.000000000000000
2.079875472277245 -1.692992547921136 -0.647724574086686 0.000000000000000
43.897583139321753 -35.793862350904178 2.962577384545249 35.000000000000000
35.516138290022909 -29.099328030820125 1.542474517691434 13.000000000000000
35.703287215547356 -29.135762532739946 1.406399713866247 38.000000000000000
35.506930595062805 -29.062098106907833 1.266337035855882 33.000000000000000
35.633110565607097 -29.122450152364770 1.134673336429318 33.000000000000000
35.610665406778146 -29.194320983367199 0.997578608579446 28.000000000000000
35.695590765690831 -29.144653656503124 0.859061070980995 24.000000000000000
35.616890571318777 -29.170489608163514 0.721311978567376 28.000000000000000
35.615253790990302 -29.048408844623701 0.582515866115157 29.000000000000000
35.441624496995559 -28.993518009620971 0.445592923832987 32.000000000000000
35.529216443880955 -29.021760846723680 0.311684592612552 34.000000000000000
35.434664957628364 -29.032682832938583 0.174460366330247 32.000000000000000
35.551119579363480 -29.010065203697565 0.037327153772970 32.000000000000000
35.400315852852842 -28.974922602755925 -0.099380905419338 30.000000000000000
35.534451924335904 -28.967271684050253 -0.236316497985523 30.000000000000000
35.365189522094141 -28.915854809034201 -0.373241987180895 35.000000000000000
35.447885397973259 -28.940104216827478 -0.505359130656081 31.000000000000000
35.345457661524364 -28.944187297373460 -0.642450470681452 29.000000000000000
35.462979646718161 -28.922994087179212 -0.779829687070712 23.000000000000000
37.664702527700690 -30.863292243708095 -1.010581704350203 19.000000000000000
37.757799906912879 -30.813298376148069 -1.155089031184383 21.000000000000000
37.687968055513437 -30.850607182161163 -1.302856207752545 19.000000000000000
37.741598456461119 -30.849163494745994 -1.442925873439131 24.000000000000000
37.646538998316785 -30.865046341935482 -1.590054441962231 20.000000000000000
37.704637325763727 -30.785925169564130 -1.733897800979226 22.000000000000000
37.648267546913360 -30.835317250557488 -1.881257605773184 24.000000000000000
37.742421745949159 -30.786077809197550 -2.026554685016737 23.000000000000000
37.664500751743709 -30.816563106798533 -2.173297768885868 25.000000000000000
37.682586983034078 -30.785391754573432 -2.310138910250664 23.000000000000000
37.613110567275740 -30.822620129269438 -2.458975026788043 21.000000000000000
3.296616076629560 -2.702816972005721 -0.225210495008441 0.000000000000000
37.626213479656052 -30.802484349397638 -2.750109667533573 24.000000000000000
37.669430341164357 -30.710708281014476 -2.889914463364527 23.000000000000000
37.687419672667261 -30.821562304111211 -3.046699507976516 23.000000000000000
37.657741316060822 -30.750263368833195 -3.179419159007879 26.000000000000000
3.143557974075332 -2.562269267166968 -0.276413019268062 0.000000000000000
37.652747570830549 -30.713894119125861 -3.469840112740511 24.000000000000000
37.681017770623782 -30.834304247632090 -3.627276013801390 22.000000000000000
37.683278133506676 -30.803717842025904 -3.918125563374212 26.000000000000000
37.621343531486637 -30.705788990123366 -4.044736584019346 11.000000000000000
33.144475948646253 -27.042888374101103 -3.639788924085058 3.000000000000000
33.083759133279003 -27.076696708298691 -3.764461856735029 23.000000000000000
31.188483785400230 -25.562418517922730 -3.649604217510329 7.000000000000000
29.794802268972152 -24.362115679371186 -3.693705975681397 9.000000000000000
28.049523034424485 -23.016787533377723 -3.560503368072514 4.000000000000000
24.516122536376525 -20.000499008827191 -3.236750696644530 11.000000000000000
2.774263977116306 -2.268188880352369 -0.419459960982405 0.000000000000000
2.698488165507575 -2.203982515447223 -0.469784326920884 0.000000000000000
9.853230412894341 -8.039958331900948 -1.938835154212982 10.000000000000000
43.809998658581904 -36.013429365884761 4.985270336245853 27.000000000000000
43.586059038670250 -35.792255841500960 2.949906973723993 33.000000000000000
43.482490040712449 -35.688840540036374 1.939920203376501 37.000000000000000
35.473357197531676 -29.153999273692726 1.401304254394766 37.000000000000000
35.216341619856024 -29.027802978835986 1.260440765933753 29.000000000000000
35.424620882384993 -29.158368780628244 1.130913900672595 38.000000000000000
35.597315747006661 -29.395543964940870 0.996862771430035 28.000000000000000
35.600068055487846 -29.276322771493447 0.857187913052346 28.000000000000000
35.615914596478767 -29.382019808868854 0.719950784841246 27.000000000000000
35.394711326091439 -29.074082807839801 0.580341304858684 38.000000000000000
35.190878798915882 -28.992590279201664 0.443937795197830 33.000000000000000
35.281286993737659 -29.023772461979974 0.310567676104199 32.000000000000000
35.186881858307601 -29.034159859857574 0.173905939826914 30.000000000000000
35.312349231413251 -29.019993860875253 0.037193197250385 32.000000000000000
35.155740459051771 -28.978969977019410 -0.098875914130354 33.000000000000000
35.280499013449386 -28.964353477410995 -0.235087272554168 29.000000000000000
35.108560006511468 -28.909554008423640 -0.371334600533604 35.000000000000000
35.200202972755115 -28.941892997791939 -0.503151579805595 30.000000000000000
35.094901686560092 -28.942836124286714 -0.639573230779540 33.000000000000000
35.209207446747854 -28.919794812522547 -0.776287591807523 23.000000000000000
37.621068951366695 -31.050889076096624 -1.015383620352054 16.000000000000000
37.619680010045613 -30.921236732130815 -1.155945264839606 22.000000000000000
37.659695428646849 -31.051118398614449 -1.308922230387561 21.000000000000000
37.618560810682638 -30.969911944656140 -1.444360422975493 21.000000000000000
37.611923764131603 -31.060327635422489 -1.596399616881544 18.000000000000000
37.649050947861134 -30.963217583926117 -1.739261175609053 21.000000000000000
37.641260142094765 -31.053756572753834 -1.889953041170681 24.000000000000000
37.604364154407655 -30.893986788460140 -2.026773610282909 26.000000000000000
37.657609398145283 -31.034954863883669 -2.182801483724849 23.000000000000000
37.605512312221038 -30.944577353715545 -2.314731726089275 24.000000000000000
3.259971447449493 -2.687845694401773 -0.219924664337557 0.000000000000000
37.647282181726418 -30.947387618994554 -2.611153128452889 24.000000000000000
37.628331687649563 -31.028463658873491 -2.761997999016673 24.000000000000000
37.589622086796467 -30.867212071982408 -2.894756145295645 24.000000000000000
37.686463518577391 -31.045059190595630 -3.059179793794387 24.000000000000000
37.580708240655554 -30.909322134662965 -3.184786003892757 28.000000000000000
3.147843121112575 -2.590032036422301 -0.280638216203532 0.000000000000000
37.658200696486922 -30.942246993237312 -3.484210543527785 23.000000000000000
37.682847909741213 -31.060323242498768 -3.641771420313966 24.000000000000000
37.657705342554614 -30.910387217781569 -3.773340285318366 25.000000000000000
37.691334453038436 -31.034749855416145 -3.934213421126502 22.000000000000000
3.015383683870333 -2.491465099763502 -0.319840212762861 0.000000000000000
33.080313233576234 -27.186200589901674 -3.645812877262019 2.000000000000000
33.089271035428993 -27.279048991818115 -3.779671843104513 23.000000000000000
30.292134197110244 -24.883991975579328 -3.649722733049313 13.000000000000000
30.134067933744785 -24.828435786934307 -3.755897295480112 4.000000000000000
2.841759943811613 -2.343889793144996 -0.366611199121889 0.000000000000000
24.482472914167630 -20.118992388139390 -3.244125109562548 9.000000000000000
2.758225714072231 -2.271562531491142 -0.417851322052421 0.000000000000000
2.680119503660086 -2.204192797685749 -0.467094989049822 0.000000000000000
2.690045396518971 -2.214014835443933 -0.542470615926894 0.000000000000000
2.083056035936782 -1.714256280018091 -0.654542309165619 0.000000000000000
0.373458525887795 -0.310532750797208 0.068151810611761 0.000000000000000
43.275078711089229 -35.788928386143986 2.937262798574012 33.000000000000000
43.208330560311246 -35.716062624285392 1.932720416875248 33.000000000000000
35.210203890828360 -29.142515957944795 1.395390578961888 37.000000000000000
34.975135985799184 -29.033348089759514 1.255601238916051 31.000000000000000
35.143221400795561 -29.130970841327148 1.125902059935433 34.000000000000000
35.065868501162427 -29.155527286688631 0.989153444852938 17.000000000000000
35.504057258189597 -29.407689636859708 0.855319786244548 23.000000000000000
35.047755305728899 -29.111189840152910 0.715348904583241 22.000000000000000
35.137831250364549 -29.067514632956112 0.578119829162743 29.000000000000000
34.946660842561229 -28.995469384469494 0.442291111242450 37.000000000000000
35.027682063588408 -29.019233531228828 0.309508286019327 36.000000000000000
34.930390945083531 -29.026486900263407 0.173461780071437 33.000000000000000
35.046510044659925 -29.005309073500428 0.037453715779183 31.000000000000000
34.908522374337728 -28.979079731071437 -0.098295978169007 36.000000000000000
35.033096628240372 -28.965202320654058 -0.233965823928140 31.000000000000000
34.873722993027883 -28.919976164069944 -0.369946171427595 31.000000000000000
34.955984620005793 -28.944907739324648 -0.501010777213643 37.000000000000000
34.847826862117536 -28.942699436326365 -0.636775154143635 34.000000000000000
34.937603968081511 -28.899656320734302 -0.772049678724313 26.000000000000000
37.561362561563200 -31.225603188178177 -1.019565053964574 14.000000000000000
37.603205850810483 -31.132039532854783 -1.162229030271583 24.000000000000000
30.804566811366719 -25.587167108142296 -1.102514516196839 2.000000000000000
37.604757112391113 -31.183389001686677 -1.451518094561797 22.000000000000000
30.766192924297307 -25.529489376480313 -1.341646440551554 3.000000000000000
37.644463439707479 -31.184471941358460 -1.747735678833159 18.000000000000000
37.600070269813642 -31.114988642782954 -2.036075421045261 25.000000000000000
37.664860267643633 -31.266626053278628 -2.193404967822528 22.000000000000000
37.600812404822420 -31.165674656500926 -2.324835889182060 24.000000000000000
3.242319191168118 -2.692908813939923 -0.218885154893004 0.000000000000000
37.651749672490567 -31.176274347084551 -2.622857124849964 21.000000000000000
37.635403285711327 -31.260015855295855 -2.774423464367093 16.000000000000000
37.582235407060260 -31.085462884509589 -2.906243257482167 26.000000000000000
37.696559755694238 -31.279275455387229 -3.072823813279193 2.000000000000000
37.572938627887844 -31.127621365594699 -3.197055700999297 27.000000000000000
3.133238302030721 -2.597614537039320 -0.280130971166801 0.000000000000000
37.662511950032339 -31.171021428758820 -3.498587356764796 18.000000000000000
37.640874830466593 -31.121004503764219 -3.786179282680448 17.000000000000000
37.606411184670776 -31.141982298792449 -4.074043126650588 8.000000000000000
33.185316641593651 -27.473964787470500 -3.673253364111923 3.000000000000000
33.078631668590667 -27.468854691813341 -3.792917217008631 17.000000000000000
30.123432451934800 -24.921964905857180 -3.640535857379495 14.000000000000000
29.914314774339918 -24.821834611501885 -3.739082706180978 7.000000000000000
2.754346337372863 -2.289630287524602 -0.346608534232925 0.000000000000000
26.018826859880708 -21.518598270005370 -3.388377471467904 10.000000000000000
24.478418668295735 -20.263403205764419 -3.256138798935501 4.000000000000000
18.979729645201374 -15.760634022942597 -2.876292433951834 5.000000000000000
2.677258215653342 -2.221762231389022 -0.470072221570777 0.000000000000000
2.671696948881186 -2.214213513019757 -0.539586381540872 0.000000000000000
2.074137693991597 -1.721007107488191 -0.654652458464854 0.000000000000000
43.221574115220541 -36.035548868036166 4.946543221073022 28.000000000000000
43.156393019424819 -35.947042836395681 2.935396542644063 39.000000000000000
43.162953455093593 -35.936126930785008 1.933046894120341 39.000000000000000
34.953638449258555 -29.134754524625365 1.389653590536287 38.000000000000000
34.722176434457985 -29.027157036865113 1.250525719799482 29.000000000000000
34.886733241040830 -29.122786640497196 1.121340191497558 34.000000000000000
34.879239377768982 -29.206848581112517 0.986123560626107 26.000000000000000
34.942696290808662 -29.140724017830337 0.849015208212308 22.000000000000000
34.897671251050660 -29.193768984942295 0.713164102527779 28.000000000000000
34.884466250782218 -29.062111305919132 0.575927627280241 29.000000000000000
34.702849620935616 -28.997007720760941 0.440665915072413 35.000000000000000
34.777573437342205 -29.015876444938584 0.308455847689109 34.000000000000000
34.686514527641179 -29.027817030577260 0.172920708079583 30.000000000000000
34.811590280749392 -29.015140888271318 0.037321175949875 35.000000000000000
34.667800212317744 -28.983037839477383 -0.097801524783091 35.000000000000000
34.792196881701123 -28.969878437479551 -0.232952103896126 33.000000000000000
34.624056955715680 -28.916108745190833 -0.368150210416901 29.000000000000000
34.712171934780933 -28.946566038820428 -0.498846005471521 32.000000000000000
34.610278688074963 -28.949019105136607 -0.634257424038653 36.000000000000000
34.696952660937662 -28.903977594415529 -0.768911219820955 26.000000000000000
36.141490054000485 -30.234018094567205 -0.967986336157677 47.000000000000000
37.606989337230800 -31.361283263553794 -1.169468238167193 23.000000000000000
30.709141935682858 -25.691435593030228 -1.104043726877318 4.000000000000000
30.715133327349129 -25.590892433208651 -1.223055529984413 4.000000000000000
30.701273928562877 -25.659700536164685 -1.344985991341242 1.000000000000000
30.766853514841245 -25.611303328051015 -1.466027126909836 7.000000000000000
30.731248920775123 -25.661127544657440 -1.586093708453270 0.000000000000000
37.609874505832231 -31.349309558883519 -2.046415426515845 18.000000000000000
37.607156276947137 -31.397496569832505 -2.335862241506529 10.000000000000000
3.213936912517793 -2.686291195281342 -0.215415548246281 0.000000000000000
30.355915657203525 -25.431293793409253 -2.157706850029904 2.000000000000000
37.585917230211159 -31.314403232466958 -2.918842911173047 12.000000000000000
37.558034343829306 -31.341051222058610 -3.208726764343137 13.000000000000000
30.432532774262455 -25.404888179336048 -2.751173650822649 2.000000000000000
30.390700277222191 -25.449792893444595 -2.872876509744791 2.000000000000000
30.362416991913630 -25.320782684191038 -2.978905718285599 1.000000000000000
