# This PCD file was generated using the MATLAB® pcwrite function
# from Computer Vision Toolbox®.
# .PCD v.7 - Point Cloud Data file format
VERSION .7
FIELDS x y z intensity
SIZE 8 8 8 8
TYPE F F F F
COUNT 1 1 1 1
WIDTH 638
HEIGHT 1
VIEWPOINT 0 0 0 1 0 0 0
POINTS 638
DATA ascii
5.628291265455419 -1.048705174573612 -1.503629687510025 8.000000000000000
4.187047923184970 -0.779784610510884 -1.535747971733196 11.000000000000000
49.368374016168708 -9.315748470332377 3.039993403873093 255.000000000000000
39.564531115211402 -7.475923468617678 1.823407173453468 6.000000000000000
36.902619774519231 -7.071047056146682 1.288896569277730 2.000000000000000
36.814800708871083 -6.977977258215037 1.178390602199875 20.000000000000000
35.349170582268137 -6.731864422430422 1.043675959688574 5.000000000000000
36.062909152274827 -6.807933721191633 0.948102334907981 5.000000000000000
35.391632802106450 -6.726354647153728 0.831661272705729 6.000000000000000
36.163768133805043 -6.813447544745316 0.732141872622117 20.000000000000000
34.699782337455872 -6.602285875872534 0.616186672127220 61.000000000000000
31.517101564774254 -6.040883491442068 0.416284565726072 1.000000000000000
31.534242879584109 -5.981763178688830 0.322372713888550 1.000000000000000
31.477263682806203 -6.020726934512493 0.227858807396901 15.000000000000000
30.421047850808119 -5.737617279419216 0.145900764074010 3.000000000000000
30.458509629931086 -5.820864304081973 0.053180527222464 7.000000000000000
30.411658219911597 -5.749968266408320 -0.037019896395390 15.000000000000000
29.845287862754549 -5.679949078029559 -0.116838353378595 18.000000000000000
28.590434730612518 -5.462003131018265 -0.178196625266749 10.000000000000000
7.906744451487709 -1.512901992456435 -0.070775147016330 9.000000000000000
26.860259995051312 -5.149025827311229 -0.379026068341350 9.000000000000000
26.795195036043101 -5.081914341912855 -0.457792096491244 12.000000000000000
26.022109275016831 -4.960395993217377 -0.508513818949993 6.000000000000000
7.828402604829106 -1.501941718129514 -0.183774012641545 0.000000000000000
7.908913179101460 -1.494981626758742 -0.189908092015992 0.000000000000000
24.570544125436694 -4.682853208406243 -0.674530617261483 13.000000000000000
23.787785694628766 -4.481787788060506 -0.706144594764041 9.000000000000000
22.758997925722920 -4.337163586156202 -0.793187555897275 9.000000000000000
7.899477551763264 -1.500052039061386 -0.284322886100644 0.000000000000000
8.082263457569796 -1.536239446452609 -0.327608770281683 0.000000000000000
8.000055233909947 -1.517418939498714 -0.343702131094633 0.000000000000000
7.952290397791517 -1.521007088544573 -0.363814173892686 0.000000000000000
7.912090758759654 -1.497471642569000 -0.381967900981104 0.000000000000000
19.675857169583143 -3.765811971519796 -1.034449511925291 12.000000000000000
19.228863426692492 -3.629360675693707 -1.054421167107379 11.000000000000000
18.060861313987434 -3.438345672146413 -1.070411620237856 11.000000000000000
17.657929397290790 -3.378268600391373 -1.090400189440082 10.000000000000000
7.659168463379173 -1.455538346015689 -0.493989860006465 4.000000000000000
7.561449757350187 -1.426874799679466 -0.618634046303171 17.000000000000000
7.572233517183317 -1.427796445909339 -0.759419960216191 12.000000000000000
7.554587789508838 -1.448913552797610 -0.873160922410678 8.000000000000000
7.609878902163716 -1.433893327468561 -1.043691492527213 11.000000000000000
7.719613177170030 -1.461613793423354 -1.206920131657192 1.000000000000000
8.018102262281438 -1.510966847342309 -1.417912194629986 6.000000000000000
7.514895655483137 -1.429575075763110 -1.436572922845714 7.000000000000000
5.625956499153892 -1.068774174480318 -1.505233408898859 10.000000000000000
4.185448831961135 -0.794906622925370 -1.537668513237421 7.000000000000000
0.543070211291272 -0.105054687711541 0.056018452522897 0.000000000000000
49.411857483840947 -9.503335985533965 3.041482651438541 255.000000000000000
39.465704092658036 -7.598609801709469 1.819049025273203 4.000000000000000
36.906908793451812 -7.205751730700895 1.287659377472559 6.000000000000000
36.874236700124477 -7.123830125174625 1.178060649146879 23.000000000000000
35.025992517526170 -6.791595239360996 1.037404219622378 14.000000000000000
33.741671239961164 -6.506595224346713 0.815266845690007 4.000000000000000
33.693204179429884 -6.550779083173432 0.713997584592624 6.000000000000000
34.991345451644051 -6.789853434488705 0.615337578750855 32.000000000000000
31.468031016778799 -6.081944884379410 0.321025297498970 5.000000000000000
30.139847699149730 -5.848269844583026 0.238243485364355 2.000000000000000
30.201246833587728 -5.875926212557100 0.055174195731885 48.000000000000000
30.107624333066489 -5.795346383529550 -0.033462078716921 35.000000000000000
28.415520124707900 -5.481198156266003 -0.088526598111493 1.000000000000000
7.965489475595475 -1.541317085022667 -0.051050646823255 2.000000000000000
7.895382012816982 -1.538768670161743 -0.070898578927160 5.000000000000000
26.398608539530787 -5.145516542172399 -0.365693593246440 9.000000000000000
26.048433277741804 -5.017332172115136 -0.432736421883129 6.000000000000000
25.358104820891761 -4.909986524777047 -0.484451577644259 8.000000000000000
7.809382214920949 -1.525402055783384 -0.183146790539826 0.000000000000000
7.800307854181439 -1.510505173269853 -0.205922389178776 0.000000000000000
7.818104067068385 -1.502925942674725 -0.230218564314588 0.000000000000000
23.832235350852386 -4.577749365767644 -0.710580907983402 11.000000000000000
7.974061561430342 -1.532900144500611 -0.269254554244780 0.000000000000000
7.945821288950613 -1.541583899270334 -0.290204008916254 0.000000000000000
7.731783884060863 -1.501810584484905 -0.317171175625440 0.000000000000000
7.988655765578589 -1.543620891867774 -0.343703228848392 0.000000000000000
7.917886203256940 -1.540715334378924 -0.361241553845216 0.000000000000000
20.573253727728179 -3.970072879447733 -0.981394110493104 9.000000000000000
19.780996283096702 -3.861081445639362 -1.044979949965496 11.000000000000000
19.299509240028026 -3.714964321678925 -1.062410116786162 11.000000000000000
18.810361875514030 -3.637781895010877 -1.081641299038424 12.000000000000000
18.085366883914915 -3.509579771096745 -1.074762953656048 12.000000000000000
7.644199072602275 -1.479487844718996 -0.493371625485034 3.000000000000000
7.542776431090232 -1.449437823817900 -0.617296892382465 44.000000000000000
7.519648738156461 -1.468668561979856 -0.753749509290338 12.000000000000000
7.528305774883081 -1.469317227058537 -0.870041237415142 8.000000000000000
7.568789945999638 -1.478269544929354 -1.039012934259460 12.000000000000000
7.716005681320053 -1.488917852596108 -1.208166642343997 1.000000000000000
8.014301118903981 -1.539293173119752 -1.419239602667482 5.000000000000000
7.500143962586561 -1.453052297220788 -1.435005591412247 6.000000000000000
5.616320888172658 -1.086634597326069 -1.504214792946338 10.000000000000000
4.176951897335234 -0.807659310085830 -1.536186337524127 12.000000000000000
44.888985694558734 -8.890576106401992 1.997644677826635 0.000000000000000
36.844248749362073 -7.326238314436592 1.285023750874976 2.000000000000000
36.850966319521113 -7.252636045370918 1.176240729427407 21.000000000000000
35.019539426363458 -6.917323699278386 1.035904553198799 16.000000000000000
31.151169357524196 -6.186321020928514 0.789233012065292 1.000000000000000
31.197128554297684 -6.133836777709846 0.697611328976290 1.000000000000000
32.822558691216173 -6.449197092731549 0.607334671376352 7.000000000000000
31.276478480140220 -6.166382974894250 0.508571164819721 0.000000000000000
30.020176680402500 -5.942436551125438 0.417651619595568 3.000000000000000
30.037123398541468 -5.886420311833025 0.328081301876730 2.000000000000000
30.035086899145199 -5.934858804865074 0.237460510059490 62.000000000000000
30.106321914293449 -5.890243556727587 0.146100544570750 12.000000000000000
30.197920439569380 -5.984891896176553 0.053323555805960 20.000000000000000
30.077240256387046 -5.898013543625463 -0.034864063886792 40.000000000000000
29.640434369306714 -5.851788769503901 -0.116485954538477 32.000000000000000
7.904023966827406 -1.553511042406129 -0.047621373017173 5.000000000000000
27.972160441588500 -5.477905307096994 -0.249255900590709 44.000000000000000
26.292440949348421 -5.217844765141399 -0.364182905731092 24.000000000000000
25.579633932807898 -5.008655817596899 -0.417709134901604 9.000000000000000
25.186460338303156 -4.964030313423951 -0.479740471986993 7.000000000000000
7.794126182061320 -1.549831567054645 -0.182863084204306 0.000000000000000
7.781279844585005 -1.533849889663720 -0.205256811705724 0.000000000000000
23.089954909992315 -4.583355549452832 -0.676617152421089 8.000000000000000
23.630607223427678 -4.619500644129738 -0.702360668184991 11.000000000000000
22.400422653924135 -4.421747600199446 -0.776855237622563 9.000000000000000
21.953206460826117 -4.358455526684102 -0.818720949664077 9.000000000000000
7.886666144427345 -1.541923149012841 -0.309488195060257 0.000000000000000
21.282717402989284 -4.201390083501581 -0.906350339004913 9.000000000000000
21.007824834807913 -4.107569112476781 -0.949648050486011 10.000000000000000
7.831922932495095 -1.533333619216755 -0.375343569918270 0.000000000000000
20.332248202181667 -4.024694525322937 -1.027496607641802 12.000000000000000
19.385336510060203 -3.804656407381368 -1.071682322312474 11.000000000000000
18.892534360521019 -3.725013866749525 -1.090870935108461 12.000000000000000
18.191105542291911 -3.600000523160467 -1.086305616092379 11.000000000000000
7.613868599984239 -1.499082513298756 -0.490722630147992 3.000000000000000
7.531658646486282 -1.474026431868021 -0.617111006137165 78.000000000000000
7.504670965468868 -1.492091279811278 -0.752847806595956 13.000000000000000
7.509548405611970 -1.491705331904994 -0.868324086193761 8.000000000000000
7.542483946783257 -1.498681678442854 -1.035499796853721 12.000000000000000
7.700999728613918 -1.513077041938502 -1.206871183675513 1.000000000000000
8.014151805430988 -1.568649818168049 -1.421480329227186 7.000000000000000
7.503982751124037 -1.481708754987699 -1.438328979492447 7.000000000000000
5.606625445500664 -1.104445214905436 -1.503195722123058 7.000000000000000
4.182074775994399 -0.825171177404971 -1.541510227629676 9.000000000000000
0.549644352716574 -0.109988072803040 0.052589290994284 0.000000000000000
45.976532739122625 -9.300236330707472 2.863553181830244 26.000000000000000
46.078913584527797 -9.310097909149716 2.035839548497297 30.000000000000000
44.853692423395273 -8.933148475031144 1.591385034448839 3.000000000000000
35.006067269535080 -6.985468310191646 1.141634938319898 11.000000000000000
35.008724542379824 -7.042241646986202 1.034344983653002 17.000000000000000
31.291324496143336 -6.330711901108453 0.789095971546327 0.000000000000000
31.517267477518420 -6.317528583864118 0.698049847835341 5.000000000000000
28.915180358251177 -5.816787988982716 0.593169937335581 6.000000000000000
31.334658759382272 -6.292931799552750 0.506951321750516 9.000000000000000
28.950674283698689 -5.813896399122056 0.419484763039428 118.000000000000000
30.076790362870522 -6.004294266685838 0.326158095538539 1.000000000000000
28.961618737972717 -5.806185279137371 0.245633792588382 22.000000000000000
28.912602091068429 -5.842842360028342 0.157179832916500 255.000000000000000
28.980074095270183 -5.823549081872719 0.070044451019880 26.000000000000000
30.066029132910327 -6.004853489351898 -0.036622214594086 27.000000000000000
29.629395779156333 -5.957116053354156 -0.118254009591770 25.000000000000000
7.892506683329938 -1.579346839763788 -0.047757649213401 7.000000000000000
28.598827132754202 -5.718258396133286 -0.268419671920908 10.000000000000000
26.026209142645570 -5.253356921701736 -0.357307865479724 55.000000000000000
25.622230892171501 -5.111197016033589 -0.421302863638131 16.000000000000000
25.096628399302656 -5.035405867363785 -0.478253883562677 34.000000000000000
24.520408023513639 -4.946780181320382 -0.530800676451376 19.000000000000000
7.758346034095063 -1.556004747263175 -0.204232915568558 0.000000000000000
22.647190167038403 -4.565840158017494 -0.655854453027776 8.000000000000000
22.525883325568746 -4.493848346802778 -0.718065270485971 7.000000000000000
21.888249705317193 -4.386102413272407 -0.749420207172181 8.000000000000000
21.472646637816226 -4.327727134452631 -0.791641237937841 8.000000000000000
7.940457625293359 -1.585797202261563 -0.316347944216697 0.000000000000000
8.003894527311489 -1.606619255420794 -0.347851310838662 0.000000000000000
7.791531440225310 -1.563285416467835 -0.349685702464967 0.000000000000000
7.843478181652781 -1.565357662351892 -0.377938829558167 0.000000000000000
19.753080840757988 -3.998611134585784 -1.047312434362206 29.000000000000000
19.482421183984389 -3.897699359553672 -1.081921238592214 13.000000000000000
18.970437891369091 -3.811965670841778 -1.099779155986498 14.000000000000000
7.594942814763787 -1.521738205798194 -0.489594027122015 2.000000000000000
7.516649220034995 -1.497484229481369 -0.616348037101411 14.000000000000000
7.478234003543527 -1.512165640671908 -0.750007848003893 12.000000000000000
7.486937832483618 -1.512898285188446 -0.865903099040550 8.000000000000000
7.527439520899756 -1.522168420857542 -1.034328199521257 13.000000000000000
7.659579558885949 -1.529726731453934 -1.199641682390855 1.000000000000000
8.002634882955480 -1.594901533670936 -1.420981707749919 6.000000000000000
7.492790852489494 -1.506153885729600 -1.437739279326526 7.000000000000000
5.607684743647555 -1.125609385159127 -1.506110879375702 11.000000000000000
4.159833155921691 -0.833041487933952 -1.533220369521846 12.000000000000000
0.563937965539570 -0.115354971248885 0.047498902573935 0.000000000000000
44.587449587350314 -9.150962190279611 1.985302709479932 15.000000000000000
42.269291526146652 -8.651346939043760 1.397460470140076 23.000000000000000
34.991089967333721 -7.109508457841319 1.140048896515091 10.000000000000000
33.157154461484438 -6.811863210389562 0.905971516323239 26.000000000000000
31.235752167487707 -6.432163600720534 0.787224393941315 9.000000000000000
31.235321449639855 -6.369263458823656 0.694939699261089 20.000000000000000
28.892558290159926 -5.916992892313403 0.591681558033826 45.000000000000000
28.890570626336167 -5.858474844635031 0.505896657113483 255.000000000000000
28.861756503546609 -5.899237508432045 0.418218199962802 255.000000000000000
28.905944353773762 -5.851751838942214 0.331812724431514 255.000000000000000
28.903961060160423 -5.898639819210389 0.244482482361433 255.000000000000000
28.901646064769395 -5.945690265239614 0.155562557998762 255.000000000000000
28.930095031677919 -5.917796994467762 0.068972212103263 255.000000000000000
29.859311252522989 -6.067951299420192 -0.034797382499207 26.000000000000000
29.551661186669079 -6.047481844847073 -0.118603577681357 26.000000000000000
7.869389192685179 -1.601847380173213 -0.047068575990013 8.000000000000000
26.673820411921003 -5.433485983954587 -0.299938783147187 21.000000000000000
26.449703696700844 -5.445532697123948 -0.373561192556431 23.000000000000000
25.422754941637777 -5.159110920913964 -0.416055193419723 27.000000000000000
25.232574771893077 -5.157984304240192 -0.485721134231204 34.000000000000000
23.772592164599128 -4.863733727731242 -0.500929330207401 1.000000000000000
23.944576243618826 -4.856034520372568 -0.578583718139684 18.000000000000000
7.819612395907876 -1.602149987048950 -0.211063514081447 0.000000000000000
22.068086235570650 -4.470183568148560 -0.695093093289885 8.000000000000000
21.664456844181970 -4.413862576504582 -0.738604085255719 9.000000000000000
21.167530965787634 -4.334646262481071 -0.775187933595800 9.000000000000000
7.647819312711292 -1.563043840078374 -0.311733843837719 0.000000000000000
7.969230727984117 -1.626262316607983 -0.345362807453363 0.000000000000000
20.417177635993792 -4.197546539137485 -0.915042117682983 9.000000000000000
7.847251680492493 -1.595317426880734 -0.379659531801206 0.000000000000000
19.426395619008662 -3.993166858802105 -1.023699577437130 26.000000000000000
18.337383687144484 -3.766330321682481 -0.992271116960614 2.000000000000000
18.900554645140733 -3.864621255636345 -1.096109676573539 19.000000000000000
7.579761140608549 -1.545377744347950 -0.488971967570848 2.000000000000000
7.486345276459643 -1.516489376667287 -0.613277264934847 6.000000000000000
7.463117115804695 -1.535391036214970 -0.749103570740653 13.000000000000000
7.468048628116350 -1.535062730655276 -0.864183016921522 9.000000000000000
7.501015904499451 -1.542303884588852 -1.030811352281975 11.000000000000000
7.640685390557543 -1.552555772254818 -1.197495212857517 1.000000000000000
8.009770006188708 -1.626382304467116 -1.425049981725480 6.000000000000000
7.492692925849036 -1.533784800230405 -1.440085097908077 6.000000000000000
5.594257352834694 -1.142218625761704 -1.503779467067159 7.000000000000000
4.164838652776028 -0.850562995913314 -1.538544671251639 9.000000000000000
42.600000966004480 -8.881983109170861 2.689630774964860 15.000000000000000
42.910360242106812 -8.939806060450925 1.928725239808442 14.000000000000000
42.310898531860524 -8.814685070626574 1.396838682699663 21.000000000000000
33.121056016144912 -6.870333534681414 1.003530712559762 2.000000000000000
33.150594701411578 -6.931302559112435 0.904506567980500 13.000000000000000
31.253748138820431 -6.487301571697881 0.693598032586204 20.000000000000000
28.877379332913261 -6.018911816832018 0.590214630660138 77.000000000000000
28.871712036702355 -5.959484034336046 0.504411259754632 255.000000000000000
28.854461585772956 -6.002834142209932 0.416686349451712 255.000000000000000
28.894934162662889 -5.954583237425176 0.330260138436350 255.000000000000000
28.892794358365663 -6.001478956709108 0.242897444004519 255.000000000000000
28.909811087441216 -6.053028508572238 0.153702168034398 255.000000000000000
28.926580552087881 -6.022533276952923 0.067181782106673 255.000000000000000
29.711006838251436 -6.143017071017292 -0.034031441678475 25.000000000000000
7.842372864416519 -1.623106479586876 -0.046102586264384 6.000000000000000
7.787752556019398 -1.623902454796765 -0.066791925189342 0.000000000000000
27.225347381922571 -5.657694541242445 -0.318829825227740 37.000000000000000
7.832958565316013 -1.624306960614849 -0.093094969370980 0.000000000000000
25.799666798210772 -5.338991869533015 -0.431937965074010 22.000000000000000
25.465290740747648 -5.304231597401063 -0.497071516115163 14.000000000000000
7.694335594354656 -1.606985283465891 -0.177169538031015 0.000000000000000
24.108289282855626 -4.981356206697085 -0.588181519704594 27.000000000000000
22.373211811387712 -4.666289829254886 -0.645878950437547 26.000000000000000
21.956821907063190 -4.524600193278219 -0.691098483697507 10.000000000000000
21.642847011284140 -4.487853127259934 -0.739490807429167 14.000000000000000
21.122908063906490 -4.401369582985809 -0.774610577551178 11.000000000000000
20.845934653168328 -4.294754052876578 -0.818118399867306 8.000000000000000
7.754660591791005 -1.622523722862191 -0.324592965801522 0.000000000000000
19.202258456796311 -4.013730356900074 -0.892196920802546 7.000000000000000
19.300945383439231 -4.000173307585134 -0.955732435813485 7.000000000000000
18.708410765676518 -3.891081597623406 -0.968945744045192 9.000000000000000
18.414952984014786 -3.852193891655643 -1.000877587437180 10.000000000000000
7.556884616593245 -1.566725103653345 -0.487332757578366 1.000000000000000
7.475000755801219 -1.540840931311103 -0.613088446149384 4.000000000000000
7.440352132605507 -1.556308130045447 -0.746905969711900 13.000000000000000
7.449092696861499 -1.557121588896528 -0.862461555103161 9.000000000000000
7.478304097793387 -1.563387295092878 -1.028073952044158 11.000000000000000
7.602947829798776 -1.569846569232830 -1.191107463329988 0.000000000000000
7.998055747779564 -1.652586358924213 -1.424551204363214 7.000000000000000
7.477601749398792 -1.557079776584249 -1.438515821890047 6.000000000000000
5.587972054211918 -1.161072574947245 -1.504071046795481 9.000000000000000
4.152756359550601 -0.861960327372222 -1.535358934514949 11.000000000000000
41.425169059300188 -8.771094939983762 2.629038913182560 8.000000000000000
41.395161303979677 -8.753275228550722 1.877595970206786 16.000000000000000
42.336276516160943 -8.974885691786234 1.395883965118355 20.000000000000000
40.001222614026666 -8.508890653037335 1.227068305617030 0.000000000000000
31.250026685394747 -6.549397038021993 0.785971517089287 12.000000000000000
28.857943853246969 -6.119897929343631 0.588737168016416 235.000000000000000
28.852496781995381 -6.060438194317129 0.502925950091526 255.000000000000000
28.879656674096946 -6.056515288383038 0.328731622867510 255.000000000000000
28.869570617262422 -6.101604205381571 0.241421770383581 255.000000000000000
28.874735350635838 -6.150475013177257 0.152374738308252 255.000000000000000
28.910999468684235 -6.124596910929270 0.065570806139035 255.000000000000000
29.515787207836599 -6.206302997251093 -0.032387204376199 28.000000000000000
7.822960300366877 -1.646445338584711 -0.045685000879927 4.000000000000000
7.779843083508009 -1.650414795114027 -0.067196551087204 0.000000000000000
7.786772336734045 -1.639797748035581 -0.090513008013812 0.000000000000000
26.412765541370565 -5.533500879570000 -0.374400106136385 23.000000000000000
25.887651758278235 -5.453922210548081 -0.437271682061785 17.000000000000000
25.316088277031604 -5.362050386114938 -0.493266645644648 16.000000000000000
24.725183158841116 -5.264103460606688 -0.545910104032747 16.000000000000000
24.388094356351967 -5.135392656608269 -0.603149086431165 15.000000000000000
22.649766805949323 -4.814673530761299 -0.662384941840636 25.000000000000000
21.868758418834783 -4.583859143829686 -0.688377507476760 22.000000000000000
21.488942118241660 -4.530085499956829 -0.732704026913506 27.000000000000000
20.969392595322450 -4.441600099436352 -0.767377343885644 27.000000000000000
7.771497310842655 -1.653585698109078 -0.303429471430992 0.000000000000000
19.723832055996304 -4.177811939021899 -0.870787054137676 10.000000000000000
7.768121661822183 -1.642773436906666 -0.350898440021824 1.000000000000000
7.766649743240900 -1.629811541356093 -0.373016716526700 1.000000000000000
18.305157500939917 -3.860852526265177 -0.939084497392804 10.000000000000000
7.541559187896206 -1.590184201022508 -0.486708178616069 1.000000000000000
7.429307858532407 -1.582594379090180 -0.609245166239085 7.000000000000000
7.417528376191189 -1.577093296246132 -0.744706603650212 14.000000000000000
7.426296524262833 -1.577950500215828 -0.860035594440079 10.000000000000000
7.451773181071747 -1.583220074926947 -1.024552989832030 11.000000000000000
7.565180276963051 -1.586901102070750 -1.184716380216232 0.000000000000000
7.986252798501456 -1.678741580382691 -1.424051775559547 7.000000000000000
7.469871148084446 -1.582502705496587 -1.438903796127584 5.000000000000000
5.585212391902830 -1.181075389802112 -1.505674614076361 10.000000000000000
4.147437591093603 -0.875786275076762 -1.535577048317740 12.000000000000000
0.538040948569744 -0.114996079345732 0.052453662732682 0.000000000000000
39.916863056584823 -8.564362854818700 1.827776349898853 13.000000000000000
39.961393601158790 -8.645953942466441 1.224873746100918 14.000000000000000
40.029196118920531 -8.579194656116309 1.104540036975902 12.000000000000000
38.447129836334391 -8.277902744837847 0.965631750044171 1.000000000000000
37.465692339263384 -8.111040721596240 0.838791032481651 2.000000000000000
28.861499711122459 -6.226375159463472 0.587320442218194 184.000000000000000
28.848500149643172 -6.165005444951128 0.501434782029411 255.000000000000000
28.811499421172314 -6.203655723386677 0.413712929733051 255.000000000000000
28.860122455651958 -6.157507474189896 0.327227941918774 255.000000000000000
28.869351411289813 -6.207164984524641 0.239725290413775 255.000000000000000
28.914511447022246 -6.231249994499699 0.063656913167518 255.000000000000000
29.402238031391430 -6.287538101119499 -0.032242762659754 15.000000000000000
7.799651260305772 -1.668542408854510 -0.044990519528287 2.000000000000000
7.756544828131545 -1.672340410311497 -0.066450751713459 0.000000000000000
26.725834080348491 -5.738125158023332 -0.307604337294827 22.000000000000000
26.317183011070952 -5.607447402807526 -0.373268677097112 25.000000000000000
25.792394813709691 -5.525932875894412 -0.435881012182069 15.000000000000000
25.333910746486218 -5.459027332525973 -0.496117699856502 18.000000000000000
24.712268249154715 -5.351563292369664 -0.547511398194056 14.000000000000000
24.329012997407325 -5.210495739946785 -0.602610230398402 19.000000000000000
7.637894126671176 -1.650993293729248 -0.220860655508333 0.000000000000000
21.928066963093809 -4.678270737498809 -0.693786415644588 36.000000000000000
21.641541788700231 -4.645961516684283 -0.743746338274604 22.000000000000000
8.967814688917496 -1.915730457459815 -0.344177974657719 0.000000000000000
7.755904001326068 -1.677776916320145 -0.303021182725289 1.000000000000000
7.781060232315081 -1.659075378356935 -0.328736938085931 1.000000000000000
7.760130464295266 -1.669213645003019 -0.351302254449392 1.000000000000000
7.758719225568099 -1.656246744348340 -0.373419510153391 1.000000000000000
18.153921998560069 -3.890380290705958 -0.929229658906814 16.000000000000000
7.518554794265094 -1.611292370510098 -0.485065850874974 1.000000000000000
7.410162712933843 -1.604416965419408 -0.607898360871655 21.000000000000000
7.387089006601212 -1.595463447171054 -0.741212355313860 17.000000000000000
7.403442252166408 -1.598647480592387 -0.857607839739250 14.000000000000000
7.436459515180485 -1.606290885340949 -1.023375837148832 11.000000000000000
7.497043897656092 -1.622554260537120 -1.173621410746762 1.000000000000000
7.985571144457741 -1.708130327729904 -1.426293957628228 7.000000000000000
7.476907585209017 -1.612363773202815 -1.443208726530972 6.000000000000000
5.568023287870632 -1.196349169839096 -1.502028967410831 8.000000000000000
4.152249565571891 -0.893371221652153 -1.540902612642682 8.000000000000000
38.344243860466150 -8.352994509844876 2.470606894339544 4.000000000000000
38.576647129529491 -8.397109010590274 1.782598232632891 11.000000000000000
39.562212473119978 -8.634924154021750 1.335163613885389 17.000000000000000
39.344967630948844 -8.647039470379854 1.212415963440469 24.000000000000000
39.790499824607082 -8.669953862095351 1.099437947327678 21.000000000000000
38.633966010006283 -8.462602960736069 0.966227965673782 42.000000000000000
37.014701164761540 -8.141621463959282 0.833230056207459 1.000000000000000
28.814112127785293 -6.320758449597835 0.585772459697352 255.000000000000000
28.844120454908708 -6.269625701309370 0.499942058744136 255.000000000000000
28.822545410779682 -6.311916009282481 0.412111337376609 255.000000000000000
28.863575365389643 -6.264022330841454 0.325572809078740 255.000000000000000
28.857073785395425 -6.310005137789807 0.238138117567126 255.000000000000000
28.886022137353493 -6.258861019463382 0.150462246467820 255.000000000000000
28.902075005281446 -6.334257522114227 0.061983638681226 255.000000000000000
26.831125373406511 -5.825758186674880 -0.067768757352913 6.000000000000000
7.780101069938117 -1.691646507598662 -0.044570019875673 1.000000000000000
7.717907197748767 -1.689521586839857 -0.064552139596936 0.000000000000000
7.763133556823556 -1.690494348473778 -0.090722054611864 0.000000000000000
26.334118003041095 -5.707942359900498 -0.375940286790799 21.000000000000000
25.731911802856178 -5.605825457371654 -0.435773808195901 16.000000000000000
25.293111416588133 -5.542000977292727 -0.496642708947879 17.000000000000000
7.680884860421346 -1.676271798272883 -0.202665608087304 0.000000000000000
22.937191605731641 -4.967893301592698 -0.679527531475829 17.000000000000000
22.246862481628181 -4.837022529397419 -0.713563755642480 15.000000000000000
21.925399851584963 -4.795550994637962 -0.762492115880232 14.000000000000000
7.757250788834538 -1.690592729702236 -0.279330055577459 0.000000000000000
9.023952880785648 -1.965078159581414 -0.350909518528673 0.000000000000000
7.757752369149562 -1.680987444695845 -0.327479469349490 1.000000000000000
7.752045634844991 -1.695626288987601 -0.351705805931082 1.000000000000000
7.746885949148056 -1.681515305370139 -0.373383051332616 1.000000000000000
7.491693956225120 -1.631118417947715 -0.482913042844138 1.000000000000000
7.364458457359859 -1.618025688509185 -0.602506276902168 23.000000000000000
7.383033077397174 -1.621727074383469 -0.742242767482145 13.000000000000000
7.395593805479947 -1.623813637375864 -0.857992370286598 11.000000000000000
7.417320467347649 -1.628136386138769 -1.021415491637123 11.000000000000000
7.492834698189704 -1.649185920539172 -1.174859495165169 1.000000000000000
7.995976669378515 -1.740868427874073 -1.431279510152585 6.000000000000000
7.472691415663412 -1.638912979387691 -1.444576539563315 6.000000000000000
5.561544790907731 -1.215111260530727 -1.502319637402849 9.000000000000000
4.136650898134221 -0.903376463371616 -1.536012834773867 8.000000000000000
37.776472607900899 -8.358562506781043 2.441211964019924 15.000000000000000
37.580393426332193 -8.301912983496052 1.748833758788456 6.000000000000000
38.308079884610372 -8.481612348472986 1.307723488647870 15.000000000000000
38.122266689087503 -8.498671605190657 1.189230931566759 11.000000000000000
38.493142687022612 -8.508055132963930 1.078762764215140 18.000000000000000
37.524472093133049 -8.339438348831203 0.951620890779646 17.000000000000000
39.512892299395425 -8.796253625213467 0.736002581073345 1.000000000000000
28.816034358764519 -6.368634728900307 0.498459253076970 255.000000000000000
28.858856852194702 -6.368748978514405 0.323966284070287 95.000000000000000
8.096691578070521 -1.792568431136534 0.031650535409350 1.000000000000000
7.885411851905983 -1.745841104520861 0.019644922267776 1.000000000000000
7.769446257989957 -1.714821553896813 -0.020438625700892 6.000000000000000
7.749027572936903 -1.711165444427229 -0.043320255638697 1.000000000000000
7.698318122933991 -1.712289990665601 -0.064089896809059 0.000000000000000
7.709197301919638 -1.703025788209356 -0.087532389719763 0.000000000000000
26.292415227416242 -5.794389997940290 -0.376641175965848 29.000000000000000
25.636247418828805 -5.676777043058118 -0.434368806501963 23.000000000000000
25.255917988985093 -5.625723669713913 -0.497320738188778 18.000000000000000
24.656344303766975 -5.428531486555140 -0.547273316429949 16.000000000000000
24.264473006178132 -5.373079149448749 -0.604025055447403 15.000000000000000
7.760419472171431 -1.729162214075080 -0.211301417169599 0.000000000000000
22.274144128516891 -4.925553267331837 -0.717284877307634 14.000000000000000
7.773027347580112 -1.736912089849204 -0.259980502543984 0.000000000000000
7.775814795394073 -1.725058390300847 -0.282479194060521 0.000000000000000
20.914732316082695 -4.617489345076068 -0.831365311534767 13.000000000000000
7.764837957492264 -1.712012210729744 -0.329547738335735 1.000000000000000
7.743866834586934 -1.722010359552549 -0.352109177389046 0.000000000000000
18.476718480741226 -4.073732484329313 -0.901521821824399 15.000000000000000
7.468576645389791 -1.651945849025181 -0.481266891690688 1.000000000000000
7.352773433470171 -1.641889468250066 -0.602311048150503 19.000000000000000
7.352483860394398 -1.639822879785936 -0.738744717434084 14.000000000000000
7.365085286707291 -1.641974726164002 -0.854154408194986 11.000000000000000
7.394367652712059 -1.648721788599326 -1.018671349789271 11.000000000000000
7.462382646861395 -1.667747828578966 -1.170155110123185 2.000000000000000
7.995059263313063 -1.770342557948702 -1.433523363390989 6.000000000000000
7.475789447148848 -1.667748847736447 -1.447903791380994 6.000000000000000
5.551419559778627 -1.232642246639736 -1.501297382596572 9.000000000000000
4.137951835100020 -0.919711775588349 -1.539636217501394 8.000000000000000
0.533990322549749 -0.120557912844770 0.050654235657906 0.000000000000000
31.896761542627615 -7.194817489626118 2.140005075932694 4.000000000000000
36.499773089766023 -8.179252904565631 1.712353580878115 9.000000000000000
37.195453326405406 -8.353475229896995 1.283315025721949 9.000000000000000
37.013788218865990 -8.369285901992230 1.168168661783334 5.000000000000000
37.450150815645387 -8.398105216279840 1.061931729413971 9.000000000000000
36.750609572244286 -8.289675140733372 0.941028502873958 8.000000000000000
36.307760460471521 -8.241064691963404 0.823907382301368 7.000000000000000
36.548374260096672 -8.224752690032025 0.717529308837170 19.000000000000000
30.795877293948699 -6.951019080043401 0.309528649525062 10.000000000000000
32.909312224348547 -7.403317463708335 0.197563906567403 22.000000000000000
8.065280888978055 -1.813195794918753 0.032604481483739 1.000000000000000
30.621912480336647 -6.861354663851889 0.033137549625872 30.000000000000000
29.918564467097688 -6.738338037185766 -0.047855837264252 28.000000000000000
7.729350787322919 -1.734018205452498 -0.042896269868206 1.000000000000000
7.648169466899674 -1.725517039528817 -0.061320982520437 0.000000000000000
7.662891668947060 -1.717551282681372 -0.084936825633692 0.000000000000000
26.161185181463807 -5.858474577864140 -0.374307741523223 30.000000000000000
25.528764383694860 -5.744225778037787 -0.432524014520178 24.000000000000000
25.175802585990773 -5.698548094842553 -0.496283940312352 21.000000000000000
24.662229085979739 -5.520633305901272 -0.549710338938245 14.000000000000000
7.780365217445166 -1.747861640545521 -0.189505290725239 0.000000000000000
22.835531346222997 -5.110918353244598 -0.678654282328684 14.000000000000000
7.835034142549811 -1.768363131589424 -0.242353163409709 0.000000000000000
21.879266677206740 -4.945146556608035 -0.764294040432199 12.000000000000000
7.767584707584909 -1.751525293587021 -0.282881201529286 0.000000000000000
16.973497906918254 -3.818726298231836 -0.687013707837081 1.000000000000000
7.764191655795130 -1.740778295517261 -0.330785118485467 0.000000000000000
7.509627768814370 -1.694533695096200 -0.349973388622577 1.000000000000000
7.452980659834738 -1.674994416765929 -0.480636909491550 1.000000000000000
7.337231246680023 -1.664510319518671 -0.601537138405104 18.000000000000000
7.336962084498648 -1.662450519312751 -0.737832676757003 14.000000000000000
7.323264098829420 -1.656416361987834 -0.848202217410481 12.000000000000000
7.371358406713004 -1.669170869520413 -1.015925466601507 10.000000000000000
7.435620132900293 -1.687287709361978 -1.166297343611229 4.000000000000000
7.994029270404571 -1.799839458498470 -1.435767756480631 7.000000000000000
7.471368893559805 -1.694319893384351 -1.449272259955335 7.000000000000000
5.541235683099510 -1.250125275800241 -1.500274576121166 10.000000000000000
4.139185096600204 -0.936075049355517 -1.543260128997120 5.000000000000000
0.397325466374296 -0.090949761075790 0.084257432877366 0.000000000000000
44.356742308802559 -10.109788297639140 4.389274943966107 255.000000000000000
0.548227549137744 -0.126211461218186 0.045559938007947 0.000000000000000
34.536521925586428 -7.959877583278730 1.646096724028040 5.000000000000000
36.169640897246289 -8.238649813103718 1.260789470919666 8.000000000000000
35.891151984687767 -8.228446105281526 1.146942818124689 9.000000000000000
35.367934495903995 -8.156725330287212 1.028583215470920 10.000000000000000
35.798897844862786 -8.190649155263218 0.928433903512696 8.000000000000000
35.383704124787542 -8.145911962947615 0.814420185091573 10.000000000000000
30.527280642760232 -6.958714730565121 0.587120274837534 1.000000000000000
36.105284156609777 -8.213164036292035 0.602583512646518 47.000000000000000
35.696731813864290 -8.170883218428704 0.493250733236248 47.000000000000000
30.676167537928688 -7.034532129591281 0.308569622619392 9.000000000000000
30.780573305582941 -6.997831746938108 0.216151729454527 9.000000000000000
8.014735530841611 -1.827767113613733 0.034707309357504 1.000000000000000
29.273618657637925 -6.746923459526152 0.050459438504039 4.000000000000000
29.718094717873221 -6.798382886488384 -0.046108987720808 37.000000000000000
7.701985664196309 -1.754388260407298 -0.041918212437892 1.000000000000000
7.712236087647616 -1.774195763491268 -0.067198071651612 0.000000000000000
7.742268315587039 -1.770867301783060 -0.092230112085797 0.000000000000000
25.425801153141901 -5.863343916200921 -0.353475261089311 62.000000000000000
25.479242567346461 -5.825735936907687 -0.432831443970150 25.000000000000000
25.076118365973379 -5.765955548468607 -0.494461139036748 21.000000000000000
24.598023091792530 -5.595223848127877 -0.549132028841693 15.000000000000000
7.851894530671071 -1.799222877941120 -0.197186747268962 0.000000000000000
7.686713878689572 -1.764113589488061 -0.206731923212948 0.000000000000000
7.765763509155475 -1.776135144996120 -0.236842831634404 0.000000000000000
7.741155793843176 -1.785050292916188 -0.259258539602918 0.000000000000000
9.288807382161881 -2.126336544233852 -0.352139915271712 0.000000000000000
7.523512393225658 -1.723097709396105 -0.307018732321172 1.000000000000000
7.721649459092228 -1.756568902021175 -0.327443109702335 0.000000000000000
7.486294997464110 -1.715304182135237 -0.348604834320520 0.000000000000000
7.433525922956197 -1.696769305564050 -0.479496772317484 2.000000000000000
7.321617411598411 -1.687050898604004 -0.600762231739260 17.000000000000000
7.313842967445821 -1.682610789339783 -0.735624997758070 14.000000000000000
7.315210613023493 -1.681302537690976 -0.848583144158627 12.000000000000000
7.344553642751916 -1.688302777315310 -1.012395031845897 10.000000000000000
7.423715504116857 -1.711385500135578 -1.165834737871890 5.000000000000000
7.985444734072233 -1.827066429520251 -1.436182935038428 7.000000000000000
7.466849449537277 -1.720888354716266 -1.450640895596204 7.000000000000000
5.530994168632749 -1.267560005629130 -1.499251147653336 10.000000000000000
4.120098729004037 -0.944627703194562 -1.536665086034080 5.000000000000000
32.132188308845187 -7.489300547425433 2.151573819994260 10.000000000000000
33.583853042864973 -7.846924262883458 1.614007374200683 7.000000000000000
34.327334717795893 -8.039796457979964 1.220293284758512 18.000000000000000
34.944536529255842 -8.123611236024249 1.128914907742237 17.000000000000000
34.417985199583690 -8.047787440754128 1.013365820002483 16.000000000000000
34.813407721803635 -8.076368245480349 0.915529476094300 16.000000000000000
30.473505952364604 -7.057682617221366 0.585478658809783 3.000000000000000
30.524742071069486 -7.120826255206180 0.492861584482716 3.000000000000000
29.583471322261435 -6.930698441557376 0.403000670797719 3.000000000000000
29.707079606755677 -6.902230268345338 0.313327392812017 16.000000000000000
8.155878321503483 -1.884486365654746 0.050382878126322 1.000000000000000
7.971810003787767 -1.844392340489419 0.036355932813628 1.000000000000000
29.201213147938677 -6.836474359994146 0.049685296141578 52.000000000000000
29.552459367200303 -6.865976664039939 -0.045002882600608 44.000000000000000
7.685986111484493 -1.778197497862709 -0.041767445803665 1.000000000000000
7.642944990517219 -1.781152439868052 -0.062983123589809 0.000000000000000
7.703414490513737 -1.787637219954838 -0.090232715846633 0.000000000000000
25.243630107184668 -5.859197408138448 -0.426209125217096 29.000000000000000
24.987876231626487 -5.835744891162291 -0.493098152388315 25.000000000000000
24.521982057974849 -5.666462747518469 -0.548045233557255 16.000000000000000
7.790132414517471 -1.809184163698014 -0.192743645209710 0.000000000000000
7.742863993068545 -1.810722883284486 -0.213230070323779 0.000000000000000
7.742124335481198 -1.797787631606034 -0.235766414864051 0.000000000000000
9.264278165533430 -2.169533017138617 -0.323021688683314 0.000000000000000
7.720457542900540 -1.794837361644779 -0.280539106546418 1.000000000000000
7.496268459169901 -1.742643611696597 -0.305328066204774 0.000000000000000
7.464037320860554 -1.748400083901889 -0.325850721525207 1.000000000000000
7.470482601929912 -1.738351246570551 -0.348114314161201 0.000000000000000
7.414006137113463 -1.718436913317854 -0.478355227493247 1.000000000000000
7.283322503539340 -1.702244770774975 -0.596515443711124 20.000000000000000
7.290669118491870 -1.702637764247350 -0.733415510621787 14.000000000000000
7.295820950790507 -1.702551988727749 -0.846850951179575 12.000000000000000
7.321436892559996 -1.708473119076567 -1.009645402390196 10.000000000000000
7.389394269971685 -1.728275892300366 -1.160274394370071 6.000000000000000
7.976763838263616 -1.854259779810500 -1.436597900810559 7.000000000000000
7.451150342859413 -1.743910581785085 -1.449068893967414 7.000000000000000
5.527828357235215 -1.287438714589386 -1.500853712730150 11.000000000000000
4.127964629294914 -0.963611738145516 -1.543695826336919 5.000000000000000
44.350853858718708 -10.435158686766686 4.390815529261971 21.000000000000000
31.225307792164404 -7.375591762661174 2.105030741315150 1.000000000000000
33.258746372659246 -7.892652296837962 1.197108174368634 9.000000000000000
34.138634750469073 -8.047762341400517 1.113442886398341 26.000000000000000
33.131285582130566 -7.778378228237774 0.894660682195052 3.000000000000000
33.112624359757248 -7.827866736076864 0.792116699394488 15.000000000000000
32.675138423081798 -7.770141476047157 0.689732346008717 8.000000000000000
33.058199712799350 -7.832319502918653 0.590048770224793 16.000000000000000
8.088641075044585 -1.924340877910880 0.052369114692915 2.000000000000000
7.921244689354077 -1.858344927119816 0.038467509819302 1.000000000000000
28.838194133982384 -6.850234146158988 0.053545830052631 25.000000000000000
29.007149316147089 -6.834807142317938 -0.036681445673392 25.000000000000000
7.662307182199763 -1.799496672654331 -0.041062217314947 0.000000000000000
7.642074572973685 -1.809594220348860 -0.063959153493905 0.000000000000000
24.853482035862569 -5.841978894833927 -0.261636795449870 1.000000000000000
25.793824905324584 -6.052731836486415 -0.368163867420214 31.000000000000000
25.166679276815767 -5.932460056050380 -0.425488804094060 29.000000000000000
24.880119570713244 -5.899926815256846 -0.490946338061689 26.000000000000000
7.579461803231978 -1.799745873772940 -0.175858089162649 0.000000000000000
7.777747294122165 -1.834489796531959 -0.192803795457188 0.000000000000000
7.512701673155824 -1.782061750917831 -0.215827735151348 1.000000000000000
22.727736871298333 -5.335494435136550 -0.679755195922193 16.000000000000000
21.572696551462606 -5.106242139402180 -0.753139757676524 18.000000000000000
21.151869657000983 -5.031166305148409 -0.794254880918671 20.000000000000000
7.480334314274936 -1.765696036857561 -0.304885942146329 1.000000000000000
20.276223241963930 -4.792359352195380 -0.863395511379557 12.000000000000000
7.447028350069415 -1.758879478404385 -0.346742452729679 1.000000000000000
7.390645543750466 -1.738781522965182 -0.476702640437247 1.000000000000000
7.275118754306826 -1.726992353721873 -0.596894667571731 19.000000000000000
7.271195261844029 -1.723751165474658 -0.731851944999221 14.000000000000000
7.272623265164574 -1.722477932664690 -0.844412897741758 12.000000000000000
7.301996897629874 -1.729721064902310 -1.007677125884303 9.000000000000000
7.358761308851760 -1.746160449349814 -1.155560808748945 7.000000000000000
7.956848186049909 -1.877901435477294 -1.434266911650767 6.000000000000000
7.450136343104963 -1.771627955744677 -1.451417680908647 6.000000000000000
5.521024955333875 -1.306061827646725 -1.501142960197480 10.000000000000000
4.115548343869333 -0.974691062854338 -1.540506179083910 3.000000000000000
0.357473089441803 -0.085552108170513 0.090897631811716 0.000000000000000
34.390430403802519 -8.205176082706249 3.520389096676825 5.000000000000000
30.462678824106639 -7.292849727344344 2.065888186750862 0.000000000000000
32.315461511246120 -7.770377954142211 1.176581244195425 9.000000000000000
33.050987738104261 -7.893474877829457 1.093076100727702 9.000000000000000
32.510097590844488 -7.807344298487419 0.983048296658150 8.000000000000000
32.857803936497888 -7.830502380131753 0.890150190924579 9.000000000000000
32.432469928101050 -7.774362498074897 0.784947233336899 8.000000000000000
31.910264538208494 -7.692015724458668 0.684102565024104 11.000000000000000
32.331654921703802 -7.765868560655610 0.586735127022868 9.000000000000000
32.999823799786860 -7.871396074412899 0.489547072407615 8.000000000000000
32.061400699522402 -7.735709695910537 0.293822401292193 21.000000000000000
8.034042631245697 -1.937244142075341 0.054567203434189 1.000000000000000
25.884102873757186 -6.179154689960052 0.098931417589266 1.000000000000000
25.896364286730282 -6.225819450950740 0.018759180601578 4.000000000000000
28.760378665138493 -6.877728915690938 -0.033978627254718 28.000000000000000
7.646164174034423 -1.823117712120103 -0.040908925242935 1.000000000000000
7.595560718430062 -1.823273205999169 -0.061468361043100 0.000000000000000
7.678777427031114 -1.837589037624324 -0.090433118724587 0.000000000000000
25.414637255410241 -6.048467884615882 -0.357297422483590 50.000000000000000
25.043148681530834 -5.992995688866855 -0.423025966919867 27.000000000000000
24.799253394394494 -5.970630765600758 -0.489880729147557 24.000000000000000
7.521663379018168 -1.809438113957844 -0.171740306539975 0.000000000000000
7.513406479966126 -1.794545521010734 -0.193928825366899 0.000000000000000
7.489090818991799 -1.802672394040411 -0.214736361482534 1.000000000000000
22.644987578914044 -5.397646210109524 -0.677677241254629 17.000000000000000
21.352036560240059 -5.126773834585843 -0.742434499641198 22.000000000000000
7.447687699612291 -1.781230117594049 -0.279035686165085 2.000000000000000
7.456763494820406 -1.786193593495100 -0.303608562087231 1.000000000000000
7.432097569694657 -1.794170292728995 -0.324912641464116 0.000000000000000
7.431078230361789 -1.781735959645758 -0.346249538577447 0.000000000000000
7.382320354629704 -1.763903988072708 -0.477087402616381 2.000000000000000
7.259308228992182 -1.749237063745246 -0.596115918663139 17.000000000000000
7.244160260210410 -1.742291477658857 -0.728991103467414 15.000000000000000
7.253112884015078 -1.743499964235929 -0.842677714875105 12.000000000000000
7.282494556397591 -1.750862391690223 -1.005707429584084 10.000000000000000
7.335518162166994 -1.766296655161409 -1.152544486560212 7.000000000000000
7.955404295312467 -1.907367847987606 -1.436511683096608 6.000000000000000
7.426903045991866 -1.792127109707247 -1.447883160859174 7.000000000000000
5.521270825871397 -1.327200702524493 -1.504059291376211 11.000000000000000
4.113184952556967 -0.989732080545068 -1.542426941216330 2.000000000000000
0.506931528493413 -0.123595832641514 0.053857024297882 0.000000000000000
32.154047298741780 -7.851798278997285 2.152143759875293 4.000000000000000
31.589983413290028 -7.698769049949776 1.160600999273281 5.000000000000000
32.208597006598474 -7.795491528404272 1.077100244768956 9.000000000000000
31.850074740472483 -7.754155399963109 0.972256407254905 9.000000000000000
31.278590966707529 -7.656040096912480 0.869405566902736 5.000000000000000
31.741488691403294 -7.713167110851025 0.777747948166353 6.000000000000000
31.165673641117984 -7.613762603569534 0.678651778033569 6.000000000000000
31.582773589981851 -7.688336231572550 0.583441939758599 9.000000000000000
31.354549589541485 -7.679892589225092 0.487411237658939 5.000000000000000
31.893759402271893 -7.757087227188173 0.390929397260608 5.000000000000000
31.386293416053086 -7.676105196983777 0.296626026355564 16.000000000000000
8.212381174746541 -2.008348950157728 0.069639852427347 0.000000000000000
25.887240010515853 -6.276002055979469 0.097157034585645 2.000000000000000
7.658415651054537 -1.865654252908230 0.004967141296481 7.000000000000000
25.854235473017834 -6.258393749723418 -0.059413045984012 4.000000000000000
7.618567848684210 -1.842931710781029 -0.039923346158910 0.000000000000000
7.586943232491349 -1.849111271290739 -0.061864772914632 0.000000000000000
25.066647556543934 -6.083108235516034 -0.272303246930548 22.000000000000000
