# This PCD file was generated using the MATLAB® pcwrite function
# from Computer Vision Toolbox®.
# .PCD v.7 - Point Cloud Data file format
VERSION .7
FIELDS x y z intensity
SIZE 8 8 8 8
TYPE F F F F
COUNT 1 1 1 1
WIDTH 636
HEIGHT 1
VIEWPOINT 0 0 0 1 0 0 0
POINTS 636
DATA ascii
10.767311514053571 -2.989073788340022 -1.150592541884346 8.000000000000000
9.891404609396712 -2.735828790610782 -1.203243277432413 8.000000000000000
9.158259418696293 -2.524623198152277 -1.220867297046276 9.000000000000000
8.500963329571313 -2.333255135550139 -1.283949512293138 10.000000000000000
8.280367661239577 -2.287475638977185 -1.394331330222944 4.000000000000000
7.593018085211043 -2.104897374338030 -1.524444646508947 8.000000000000000
5.820587620935520 -1.608036707680782 -1.644045735151079 12.000000000000000
20.283817885877529 -5.689434342207953 4.532791690746091 11.000000000000000
20.211001154293630 -5.649354674471120 3.392976008635822 53.000000000000000
20.553798878320912 -5.736486516146194 2.303260298823038 15.000000000000000
0.537992976469086 -0.150048659649713 0.041459511027532 0.000000000000000
20.562952560272347 -5.715538600631064 0.912189265346034 15.000000000000000
20.553392069780784 -5.750981174069580 0.721453632409947 18.000000000000000
20.559347988062239 -5.713807818313740 0.657589116375698 14.000000000000000
20.566246008224720 -5.754835711249214 0.594258782804442 16.000000000000000
20.564413439966739 -5.710026050265135 0.532317623258927 16.000000000000000
20.567089079363736 -5.749286434833245 0.468517274334107 15.000000000000000
20.566929080219253 -5.749136501968373 0.341242607036032 15.000000000000000
20.569971390307376 -5.750009065749758 0.213572812545559 15.000000000000000
20.571881775987404 -5.784068515001032 0.151641918057109 16.000000000000000
20.572521621305373 -5.744987316428301 0.088354860439709 15.000000000000000
20.581536175258528 -5.786712248766129 0.024055722171226 15.000000000000000
20.570198460446530 -5.744143247975515 -0.039239079445850 15.000000000000000
20.555945447094754 -5.778494779979496 -0.102566050853863 13.000000000000000
20.150389611913663 -5.616231081438897 -0.152714064315860 6.000000000000000
20.124976201194865 -5.640104419417668 -0.212457540010670 7.000000000000000
20.120451928302959 -5.600634408202197 -0.274738259860005 7.000000000000000
20.136271033157012 -5.643786716542081 -0.338304229943700 8.000000000000000
20.135106469102222 -5.605679043495442 -0.399953396594304 8.000000000000000
20.123854619135674 -5.640042860306181 -0.462031585993686 8.000000000000000
20.156792997562523 -5.612344799025010 -0.525706945701483 8.000000000000000
20.138046769425348 -5.638266833836738 -0.585072300932889 7.000000000000000
20.143906320181046 -5.601940513496658 -0.648130609726218 7.000000000000000
20.147208102036515 -5.641308183585004 -0.711196610029641 8.000000000000000
20.129717703609643 -5.598206690096781 -0.771688229142395 20.000000000000000
19.999146385438696 -5.595944204474996 -0.825103153529548 10.000000000000000
19.258042960771224 -5.406141502096034 -0.837985848915760 5.000000000000000
18.591416757578067 -5.227107038136239 -0.847486796021886 9.000000000000000
17.650400317125467 -4.936203102495142 -0.888405941680759 7.000000000000000
17.120847208335128 -4.805672811751911 -0.901490969847071 8.000000000000000
16.796765812085670 -4.673799067137921 -0.924211566932059 8.000000000000000
15.810393522537538 -4.416894435874049 -0.939076009795806 9.000000000000000
15.377588614216734 -4.311478447077086 -0.949336796786183 8.000000000000000
15.045515503811114 -4.179718252010254 -0.962377689530457 7.000000000000000
14.431794455154744 -4.045841044416683 -0.993606542413788 9.000000000000000
14.118142000623113 -3.921955114358170 -1.005070465331079 8.000000000000000
13.705307938571522 -3.853835510845094 -1.004610203077432 7.000000000000000
13.150931050205450 -3.680212413908940 -1.024862371300807 7.000000000000000
11.785430671115968 -3.282466601073807 -1.086525742413659 8.000000000000000
10.739818885462743 -3.020812782061085 -1.148834616682006 9.000000000000000
9.879817152303090 -2.769509874675606 -1.203764009281279 9.000000000000000
9.143682834829200 -2.554477070003500 -1.220641521806058 9.000000000000000
8.494489174284706 -2.363360474171124 -1.285182659380975 10.000000000000000
8.285105197026876 -2.320662538482097 -1.398178782866560 4.000000000000000
7.587270955121611 -2.131857574340721 -1.525827359485029 8.000000000000000
5.809375536500586 -1.626186027019720 -1.643033155111200 12.000000000000000
20.160872131362879 -5.727843738506081 4.511567972797029 45.000000000000000
20.227299459714192 -5.730775140916414 3.397320885141117 49.000000000000000
20.543304537416532 -5.810896283981108 2.303171756327836 15.000000000000000
0.522549463874698 -0.147984705890657 0.044831296564075 0.000000000000000
20.563907121729383 -5.793525463700917 0.911550189585608 16.000000000000000
20.569568051532023 -5.833686774682945 0.720760879955063 16.000000000000000
20.552764644817774 -5.789401237911726 0.656611899966570 15.000000000000000
20.559534699765869 -5.830472045066507 0.593234290803604 15.000000000000000
20.565373008568997 -5.788013056059498 0.531253688361458 16.000000000000000
20.571742882770128 -5.828502502892292 0.467374622750749 14.000000000000000
20.558065639951369 -5.785117327596765 0.404322063894556 15.000000000000000
20.563990722110869 -5.825963712219924 0.339997403627227 14.000000000000000
20.565212103741398 -5.787260900631466 0.277347746804050 16.000000000000000
20.570900825383070 -5.828016201170861 0.212154219962917 16.000000000000000
20.573347999247972 -5.823026853430193 0.086794913871118 16.000000000000000
20.578408566857032 -5.863627314612437 0.022514662812724 15.000000000000000
20.563431858196736 -5.819798010865313 -0.040736496964758 16.000000000000000
20.564346369928636 -5.858863660889106 -0.104565536681881 13.000000000000000
20.132658902130043 -5.686870766652589 -0.153905524959694 8.000000000000000
20.122289321808569 -5.715431822192585 -0.214209998625315 7.000000000000000
20.117936584660242 -5.675904521659398 -0.276549865444279 8.000000000000000
20.129800529898066 -5.717951787162640 -0.340014587550057 7.000000000000000
20.132618273787276 -5.680985864878252 -0.401883496942086 7.000000000000000
20.136519904345860 -5.720079676424341 -0.464758705379017 8.000000000000000
20.154325476494140 -5.687714251086895 -0.527755902231634 8.000000000000000
20.146774047496759 -5.717198125539852 -0.587801969596644 6.000000000000000
20.148982844264477 -5.679644276469368 -0.650736426312040 6.000000000000000
20.144527270446090 -5.716686544562037 -0.713421459146690 9.000000000000000
20.119589588400657 -5.671130622774648 -0.773483829205690 18.000000000000000
19.950914215667325 -5.656603617991266 -0.824375157029182 9.000000000000000
19.241003381070577 -5.473671443866749 -0.839270839689086 5.000000000000000
18.586284852072129 -5.295932067218878 -0.849585465942198 9.000000000000000
17.631117441939189 -4.996943546727742 -0.889339515697064 7.000000000000000
17.094443206086627 -4.862164490494955 -0.901767495575238 8.000000000000000
16.767042046548251 -4.727983601792872 -0.924122207571309 8.000000000000000
15.781488399151545 -4.467579498011453 -0.938864958763031 8.000000000000000
15.364261521401019 -4.365508277903601 -0.950510762712530 9.000000000000000
15.002314803396448 -4.222928528108653 -0.960565296546928 7.000000000000000
14.404311005852104 -4.091704193158286 -0.993180391790481 9.000000000000000
14.098697666717424 -3.969169234647694 -1.005407332016978 8.000000000000000
13.685980016232882 -3.899584700954733 -1.004915090110409 7.000000000000000
13.113362981346199 -3.717880521450496 -1.022900921724505 7.000000000000000
11.779472376554008 -3.325222385438714 -1.088171436747224 7.000000000000000
9.871846197482700 -2.804421771142557 -1.204934909759588 8.000000000000000
9.136449314001929 -2.586831294976342 -1.221830196450924 10.000000000000000
8.487903436049756 -2.393453812365344 -1.286415636342368 10.000000000000000
8.289706593821883 -2.353918014678548 -1.402027393171078 4.000000000000000
7.574123302516383 -2.156193324232468 -1.525241138606914 8.000000000000000
5.798101986601652 -1.644287194458187 -1.642019837358637 11.000000000000000
20.161591284462986 -5.804428343980241 4.514977672806359 40.000000000000000
20.228146170976565 -5.807633755705389 3.399497933812644 50.000000000000000
20.543947853876432 -5.888878894630551 2.304082507743387 15.000000000000000
20.561353450311728 -5.876394084041955 1.164389143592261 16.000000000000000
20.556928333113749 -5.869210787294868 0.910760008460802 16.000000000000000
20.562513773466996 -5.909398656240015 0.719829539536958 16.000000000000000
20.557355481535861 -5.868592768013620 0.655716366017644 14.000000000000000
20.567809930640429 -5.910910072794415 0.592272263675766 16.000000000000000
20.558398658766482 -5.863694809082276 0.530180402330822 16.000000000000000
20.568456410659646 -5.905431517137075 0.466245775782704 14.000000000000000
20.554966196203544 -5.861957248725723 0.403135828317209 15.000000000000000
20.579845925457828 -5.908829726807951 0.338593541111395 14.000000000000000
20.558332998812180 -5.862923479041200 0.276086866226808 16.000000000000000
20.575346558533838 -5.907288750325634 0.210679487679690 16.000000000000000
20.576352688462396 -5.863346235973800 0.150085854531373 16.000000000000000
20.573873825997044 -5.901154642550075 0.085233487551675 16.000000000000000
20.571646969729503 -5.900260218357090 -0.042643915782795 15.000000000000000
20.145204119885936 -5.766992419681976 -0.156104471208676 6.000000000000000
20.138376016137546 -5.796835533694072 -0.216650839991706 8.000000000000000
20.115134627171145 -5.751238549829473 -0.278362519551141 7.000000000000000
20.142113017033232 -5.798148111637936 -0.342532057006305 7.000000000000000
20.126029744998650 -5.755160862126118 -0.403641379400657 8.000000000000000
20.141242421586707 -5.797880373073326 -0.467118452210125 8.000000000000000
20.155385673440193 -5.764320038295061 -0.530002071460700 8.000000000000000
20.143761033461498 -5.792658277656820 -0.589909487825284 7.000000000000000
20.146134902405635 -5.755073063254386 -0.652903914743854 7.000000000000000
20.149178872415686 -5.794522161622140 -0.716110949184614 11.000000000000000
20.124436120309444 -5.748824176764536 -0.776254233295985 19.000000000000000
19.887263891189910 -5.712216027846047 -0.822621863247534 9.000000000000000
19.208496354508906 -5.536358499216391 -0.839485478855133 6.000000000000000
17.938934060634416 -5.127147028413432 -0.860222341199971 7.000000000000000
17.600217949241276 -5.053994052405002 -0.889364758300140 7.000000000000000
17.067848008129033 -4.918541466923578 -0.902042211482448 8.000000000000000
16.752338191110699 -4.786856968368959 -0.925334208674512 8.000000000000000
15.767586194209201 -4.523027576454005 -0.940048785218590 9.000000000000000
15.335580850549452 -4.414595427460569 -0.950239178070928 8.000000000000000
14.996902385621514 -4.278095765673910 -0.962476014208390 8.000000000000000
14.399390425785857 -4.144815322482003 -0.995129345968778 9.000000000000000
14.060155186542968 -4.010194243835784 -1.003701838342790 8.000000000000000
13.342774660385746 -3.815514257049259 -1.010643445989188 6.000000000000000
13.105894851699436 -3.765276316119810 -1.024478373543423 7.000000000000000
11.773353089050499 -3.367994671471116 -1.089817547749775 8.000000000000000
10.745989194817145 -3.063761838820305 -1.152308098599108 8.000000000000000
9.863747332684984 -2.839314299639618 -1.206105584332636 8.000000000000000
9.121659264720865 -2.616585232858441 -1.221602885226027 10.000000000000000
8.477505428470650 -2.422239955177396 -1.286861790459602 10.000000000000000
8.286805047630953 -2.384624212037508 -1.404169950213747 4.000000000000000
7.568183914315441 -2.183108790191369 -1.526623220704728 8.000000000000000
5.793818742843385 -1.665045135900932 -1.643639933640888 11.000000000000000
20.165760699941426 -5.882285570305491 4.519131343889306 40.000000000000000
20.217365594601056 -5.880970167653267 3.400050587275798 52.000000000000000
20.551890911489242 -5.969353261877067 2.305657371082657 15.000000000000000
20.554129914000157 -5.952113627787398 1.163787605363849 16.000000000000000
20.557293294601955 -5.947333701490287 0.910118723330779 16.000000000000000
20.578049463526082 -5.992401127525767 0.719132302623593 18.000000000000000
20.546378213838764 -5.943081264838888 0.654710452590725 14.000000000000000
20.564329212439542 -5.987868281398278 0.591261413109059 16.000000000000000
20.562580743208496 -5.943029247195049 0.529118069175516 16.000000000000000
20.564878229278488 -5.982411665251306 0.465116266764237 15.000000000000000
20.551575051324939 -5.938848304678174 0.401948573155492 15.000000000000000
20.587740569594761 -5.989466877871564 0.337250395969170 15.000000000000000
20.566432015039609 -5.943416648805837 0.274651762617537 16.000000000000000
20.575672086604818 -5.985471794786399 0.209258168256501 15.000000000000000
20.584328939889097 -5.943937713800160 0.148461368256893 15.000000000000000
20.577910802801785 -5.980570099238712 0.083592134829043 17.000000000000000
20.586431203098225 -5.944204836015189 0.020701125807098 16.000000000000000
20.568109769336861 -5.977232448271693 -0.044245600022779 15.000000000000000
20.553360809613224 -5.933368975066358 -0.105996090582214 14.000000000000000
20.142182968872881 -5.842459533266876 -0.157801267896279 7.000000000000000
20.135095202941432 -5.872333165181651 -0.218405575065276 8.000000000000000
20.123477247093994 -5.830249044895069 -0.280624904670452 7.000000000000000
20.142680795514739 -5.874868155102135 -0.344567434051780 7.000000000000000
20.134403222522344 -5.834189200511553 -0.406093054092160 8.000000000000000
20.134239172328304 -5.872158269513164 -0.468924612868143 8.000000000000000
20.148531314220108 -5.838613856224434 -0.531855998820186 7.000000000000000
20.151877559401587 -5.871806921503072 -0.592642271402145 6.000000000000000
20.146806872081427 -5.831763774121171 -0.655292424392353 7.000000000000000
20.153525964635705 -5.872464688534237 -0.718802145624621 9.000000000000000
20.125172658019554 -5.825419104561462 -0.778782452285837 19.000000000000000
19.850093443747166 -5.775929172068416 -0.822651857710308 8.000000000000000
19.156772500204752 -5.592821915972394 -0.838359070703708 6.000000000000000
18.542879274227783 -5.352656013226870 -0.848896217517797 8.000000000000000
17.557741533499268 -5.107222661626082 -0.888479843503534 8.000000000000000
17.029681380599364 -4.971117289552588 -0.901371324163258 8.000000000000000
16.718445299318752 -4.839587323922700 -0.924915215749190 8.000000000000000
15.726966703946772 -4.569787758259487 -0.938786632536648 9.000000000000000
15.299169157694990 -4.461055429431632 -0.949242559751820 8.000000000000000
14.968560774805066 -4.325886218660933 -0.962149768817492 8.000000000000000
14.620582293058668 -4.242692078215178 -0.975670980267526 10.000000000000000
14.040406750431195 -4.057179988602499 -1.004035223001246 7.000000000000000
13.662716512865735 -3.944007510303734 -1.004799324121439 7.000000000000000
13.323611786100273 -3.859980438367671 -1.010916534341907 6.000000000000000
11.763314095954133 -3.409502644978723 -1.090951080752914 8.000000000000000
10.733252161952944 -3.100423792728648 -1.152874339714643 9.000000000000000
9.848063345495394 -2.871604121601720 -1.205973732096037 8.000000000000000
9.121624046177267 -2.651498756906292 -1.224207106208773 10.000000000000000
8.470699616308231 -2.452302149883664 -1.288094316212813 10.000000000000000
8.276428232889550 -2.412705115060774 -1.404605370950995 4.000000000000000
7.558502390935231 -2.208685588968748 -1.527020369260278 8.000000000000000
5.792976714971381 -1.687166804322480 -1.646577393654477 13.000000000000000
20.173366974884125 -5.961455470190593 4.524029741705007 41.000000000000000
20.210087905903684 -5.955523641231039 3.401144121754047 48.000000000000000
20.551927017438850 -6.047522778569714 2.306565051690057 15.000000000000000
20.554238711351996 -6.030295839138098 1.163428731725715 16.000000000000000
20.557356335848286 -6.025532879018321 0.909476610734114 15.000000000000000
20.562784906815949 -6.065803501727679 0.718121037197444 17.000000000000000
20.550369385095788 -6.022437905746699 0.653812319174157 14.000000000000000
20.568173877767141 -6.067322317934106 0.590280193664871 15.000000000000000
20.570263752997420 -6.023676658384225 0.528058218476425 16.000000000000000
20.568623047411677 -6.061894832903384 0.463969492224260 15.000000000000000
20.555512618705936 -6.018231843193782 0.400720544776851 15.000000000000000
20.580084682080429 -6.065342842944240 0.336032974166898 14.000000000000000
20.562780463212693 -6.020408128229455 0.273345329736902 16.000000000000000
20.575695052780375 -6.063738764880419 0.207835550241752 15.000000000000000
20.580558420779138 -6.020997262832473 0.147036327779587 14.000000000000000
20.577831505760013 -6.058865739625112 0.082028111326479 16.000000000000000
20.597946065065436 -6.026128374600354 0.018794866987194 15.000000000000000
20.579511652577033 -6.059139556965008 -0.046259287338400 15.000000000000000
20.561148838040584 -6.013946953046968 -0.107998896269383 12.000000000000000
20.146489921814084 -5.920422438321239 -0.159751866160543 7.000000000000000
20.131525917459236 -5.947894315909600 -0.220161700128924 7.000000000000000
20.123895614244358 -5.906953105771770 -0.282589617944513 7.000000000000000
20.131541041232513 -5.947987224316115 -0.346118893392429 7.000000000000000
20.142463851161892 -5.913349975254818 -0.408546847575766 7.000000000000000
20.126957219891544 -5.946462764442579 -0.470731085698577 8.000000000000000
20.145204030343415 -5.914151671481498 -0.533907565311762 7.000000000000000
20.148277376256473 -5.947419239973883 -0.594752139137249 6.000000000000000
20.150985385141968 -5.909756465853029 -0.657902726566308 7.000000000000000
20.153768222462507 -5.949290161138798 -0.721262708103062 9.000000000000000
20.121811779835078 -5.900879081147593 -0.781067842131584 17.000000000000000
19.793715911432749 -5.833342622207361 -0.821400227427642 8.000000000000000
19.108680344685634 -5.650227725364346 -0.837496251983569 5.000000000000000
18.503095792714024 -5.410382682325185 -0.848482950107504 9.000000000000000
17.537854481118622 -5.167643698818260 -0.889408544060688 7.000000000000000
17.002718608339734 -5.027213412550203 -0.901641817938024 7.000000000000000
16.688173170179933 -4.893382412779196 -0.924819906575038 8.000000000000000
15.686208551237705 -4.616323505203816 -0.937521133361781 9.000000000000000
15.292861780280518 -4.517362447673435 -0.951136337189668 8.000000000000000
14.936280683470997 -4.372279380817602 -0.961447967551233 8.000000000000000
14.588630588250144 -4.287860399395448 -0.974902354806427 11.000000000000000
14.009161977798289 -4.100338241628599 -1.003141477575948 8.000000000000000
13.650623624414241 -3.992102766965679 -1.005940904992615 7.000000000000000
13.296755074393353 -3.901847171300645 -1.010325163116919 6.000000000000000
11.756878164144890 -3.452270072738195 -1.092597154922526 8.000000000000000
10.716643368755918 -3.135749873564173 -1.152857972480916 8.000000000000000
9.839715790847460 -2.906443830000491 -1.207143666154945 8.000000000000000
9.110322424515996 -2.682491278912842 -1.224686934338642 10.000000000000000
8.452708953687203 -2.478375382818442 -1.286965199043447 10.000000000000000
8.280645064999799 -2.446081695649426 -1.408455795554322 4.000000000000000
8.030213539715092 -2.352899375193203 -1.501189573574402 8.000000000000000
5.781498216182264 -1.705169846517656 -1.645562624393381 12.000000000000000
20.176925782692710 -6.039533978756928 4.528180117884768 40.000000000000000
0.427226600065283 -0.127606491619900 0.066861097634858 0.000000000000000
20.551660558779734 -6.125776220577599 2.307471552883880 16.000000000000000
0.532847116935076 -0.159368290960430 0.037922363521613 0.000000000000000
20.568532228796219 -6.107516332663742 0.909055388819914 14.000000000000000
20.562468502653488 -6.144132209983951 0.717264583717924 17.000000000000000
20.557856997950459 -6.103126115909809 0.652939509950868 13.000000000000000
20.537466463602051 -6.135771383538525 0.589162401772237 19.000000000000000
20.570017879841000 -6.102004287279648 0.526989092515207 16.000000000000000
20.564450460238664 -6.139006111575164 0.462837770533705 16.000000000000000
20.566752807431079 -6.100180315975706 0.399450507818937 14.000000000000000
20.579752089554788 -6.143725686524839 0.334750488384886 16.000000000000000
20.574062671795492 -6.102361165862376 0.271862880555305 16.000000000000000
20.529760927299805 -6.127285353434203 0.207082936580362 17.000000000000000
20.580300940645632 -6.099352704811345 0.145542694089282 16.000000000000000
20.581253295994969 -6.138478107578656 0.080383652144697 16.000000000000000
20.590107136006772 -6.102070243409813 0.017340755732265 17.000000000000000
20.575372133011214 -6.136280233342454 -0.047863801422661 15.000000000000000
20.553396762802400 -6.089747177959808 -0.109545131215650 13.000000000000000
20.135277448270671 -5.993569189623159 -0.161197292573730 7.000000000000000
20.123870711127683 -6.022264231132006 -0.221780554064006 7.000000000000000
20.127819342223905 -5.984970748411598 -0.284705685776891 7.000000000000000
20.127730424759100 -6.023586553506611 -0.347994226071199 7.000000000000000
20.135006434145765 -5.987722594386533 -0.410308036071994 8.000000000000000
20.123194520992310 -6.022033019499780 -0.472723512847364 7.000000000000000
20.149191193839648 -5.992205468871944 -0.536354818448303 7.000000000000000
20.144390013289790 -6.023079754157017 -0.596862856838290 7.000000000000000
20.151061705333912 -5.986620939859165 -0.660293959645065 8.000000000000000
20.146121860041600 -6.023719632750414 -0.723259510289493 12.000000000000000
20.125760306317158 -5.978861564552496 -0.783842977614601 19.000000000000000
19.737173268510706 -5.890440227292991 -0.820143823684518 7.000000000000000
19.075589365123097 -5.712334491203613 -0.837702042698953 6.000000000000000
18.482095896903534 -5.474096564293390 -0.849462586003503 9.000000000000000
17.495028119025342 -5.220489908222689 -0.888517488154545 7.000000000000000
16.971781415826719 -5.081931782656440 -0.901595398343797 7.000000000000000
16.650152060504251 -4.944534688766147 -0.924069457129510 7.000000000000000
15.652871038449831 -4.665163150118651 -0.936951781283488 9.000000000000000
15.256130899392950 -4.563547973165527 -0.950135719578676 8.000000000000000
14.915188924130877 -4.422294458751729 -0.961863882164643 8.000000000000000
14.579187752381181 -4.340452563521531 -0.976443587166542 11.000000000000000
14.011746535869889 -4.154686770977960 -1.005924873543228 7.000000000000000
13.619512861651241 -4.033803797714697 -1.004982779850284 7.000000000000000
13.277295581767184 -3.946125563281896 -1.010595429779170 7.000000000000000
11.739029951252085 -3.491162241558854 -1.092704138173985 8.000000000000000
10.703650670899734 -3.172306830141551 -1.153422668136765 8.000000000000000
9.834958059926855 -2.942586678114445 -1.208964809244966 9.000000000000000
9.098909270724072 -2.713448413328329 -1.225166191533500 10.000000000000000
8.442007527636928 -2.507034686831361 -1.287409447763144 10.000000000000000
8.281055570373532 -2.478175885433593 -1.411453166346697 4.000000000000000
7.552364919317548 -2.235574582171473 -1.528402023615975 8.000000000000000
5.776980521642582 -1.725897490575903 -1.647182296423067 12.000000000000000
20.172716638184497 -6.115253476857461 4.530838563106344 42.000000000000000
20.224806903298987 -6.114628940805936 3.407653083757213 51.000000000000000
20.373106988662091 -6.145614682074232 2.292763276579496 15.000000000000000
0.525068902370792 -0.158324322854206 0.039608489047005 0.000000000000000
20.499580961977063 -6.163472762815495 0.907077810298153 16.000000000000000
20.364279685714699 -6.157524943665649 0.714405934193269 18.000000000000000
20.477577607529355 -6.155374982869276 0.651452861187440 17.000000000000000
20.289900540229631 -6.132976860285368 0.587203674600674 23.000000000000000
20.508656103054864 -6.160467634220623 0.525867205200458 18.000000000000000
20.423216050721653 -6.171114442809596 0.462017564404144 17.000000000000000
20.505433498886770 -6.158660996919906 0.398565849261020 17.000000000000000
20.370126366424213 -6.153479755477591 0.335247258448835 19.000000000000000
20.478553845000473 -6.149716661605702 0.271611172869759 17.000000000000000
20.289806855993071 -6.127021167789842 0.209196689428605 22.000000000000000
20.518930374705004 -6.157862512582483 0.145126754267993 15.000000000000000
20.432415862591846 -6.168181094590345 0.081915468842014 17.000000000000000
20.418535772071188 -6.124614482238272 0.019804518431752 17.000000000000000
20.354394331270161 -6.142344380802911 -0.043586036181986 19.000000000000000
20.499745613711333 -6.150696584456632 -0.109714067262926 15.000000000000000
20.135191426302526 -6.070447204336915 -0.163023527088079 7.000000000000000
20.119729719036133 -6.097918437548230 -0.223538118888396 7.000000000000000
20.127640986548258 -6.061844444633202 -0.286673128122122 6.000000000000000
20.123631543251271 -6.099229949223727 -0.349869892953141 7.000000000000000
20.134863964300656 -6.064603605552136 -0.412417223845815 8.000000000000000
20.111553620516005 -6.095154687452258 -0.474345279603589 8.000000000000000
20.164263356381870 -6.074094356393424 -0.539396554813382 7.000000000000000
20.140213884704966 -6.098795926867858 -0.598974410885024 7.000000000000000
20.139457656634040 -6.059824297303130 -0.662023744769310 8.000000000000000
20.141986623606243 -6.099416936795819 -0.725488964345038 12.000000000000000
20.106639790143475 -6.049482685287067 -0.785152481784247 21.000000000000000
19.695635444785957 -5.952216269796388 -0.819907132778457 7.000000000000000
19.046081913913191 -5.775537204881964 -0.838173816420091 6.000000000000000
18.453292418198210 -5.535237725285242 -0.849882345247305 8.000000000000000
17.459608623005106 -5.275637290896434 -0.888229899982853 8.000000000000000
16.948226098118749 -5.139039559284569 -0.902177321222513 8.000000000000000
16.630884168206858 -5.001788106896257 -0.924949274169976 8.000000000000000
15.630703462929432 -4.717659954393824 -0.937429745247117 9.000000000000000
15.234346478555885 -4.614659905590358 -0.950580187002745 7.000000000000000
14.886376670575803 -4.469680775767557 -0.961531521737426 9.000000000000000
14.558237302169214 -4.389206888591801 -0.976827960595570 9.000000000000000
13.976422058413799 -4.196367119002254 -1.004618974995449 8.000000000000000
13.599564843349196 -4.079202901627617 -1.005282507358221 7.000000000000000
13.253922188367447 -3.989031509463715 -1.010432338798394 7.000000000000000
11.728539543272340 -3.532593836119155 -1.093836511389732 8.000000000000000
10.694260138962843 -3.210138500006288 -1.154569118702907 8.000000000000000
9.822634637122757 -2.976068551613139 -1.209482616958454 8.000000000000000
9.094786645020111 -2.747050729574084 -1.227062228526136 10.000000000000000
8.431202846005750 -2.535660361125650 -1.287853156002811 10.000000000000000
8.281336509109771 -2.510312750389438 -1.414451167131247 4.000000000000000
7.542495814932871 -2.261099840646310 -1.528798572212789 8.000000000000000
5.761865508285308 -1.742417331907717 -1.644848489563699 12.000000000000000
20.171946170608468 -6.192258735850842 4.534241704625492 44.000000000000000
20.224174415499700 -6.191863627334719 3.409824646169207 49.000000000000000
20.198442492290930 -6.165538978530655 2.278405146454638 44.000000000000000
20.215005264649538 -6.153312526941967 1.151582834928678 54.000000000000000
20.255889551764810 -6.161057024482119 0.901712408060193 28.000000000000000
20.230759972838108 -6.191097320173185 0.712218007498375 54.000000000000000
20.233872857142579 -6.153165162885387 0.648838346969083 29.000000000000000
20.217221913242060 -6.186532529656077 0.585941015640164 57.000000000000000
20.257305851126993 -6.155607282983951 0.524600457854869 26.000000000000000
20.225082525941630 -6.183345915457281 0.461344066951843 43.000000000000000
20.269275028673494 -6.158960678004298 0.398635319509592 23.000000000000000
20.228998931979806 -6.184575089558543 0.335178835234646 56.000000000000000
20.234838959473574 -6.147568166040372 0.273093877575662 33.000000000000000
20.220924042510457 -6.181852920302532 0.208799693028179 60.000000000000000
20.263784629884594 -6.151854347703647 0.148165443507351 25.000000000000000
20.241880459260038 -6.183027567634021 0.084337963029357 46.000000000000000
20.250853480973159 -6.147286534822612 0.022194460095270 47.000000000000000
20.220900121285410 -6.175946680102470 -0.041664330801028 54.000000000000000
20.271253028950788 -6.153719603818928 -0.104587948488751 26.000000000000000
20.134810023226034 -6.147402870591648 -0.164850913452133 7.000000000000000
20.126673313520826 -6.177431431232321 -0.225712101781604 7.000000000000000
20.115787393239462 -6.135014758524648 -0.288190353202385 6.000000000000000
20.115453103664652 -6.173667913134842 -0.351584542277851 7.000000000000000
20.130630657446449 -6.140308013544157 -0.414353471000496 8.000000000000000
20.129966322966695 -6.178384727178077 -0.477454616229114 8.000000000000000
20.156249046404618 -6.148629268371707 -0.541254202594747 6.000000000000000
20.131960433524068 -6.173295545591856 -0.600877691973441 7.000000000000000
20.135161930502619 -6.135550034738891 -0.664195745861558 8.000000000000000
20.160289287821367 -6.182762872998829 -0.729117092179837 9.000000000000000
20.098634667060796 -6.123820257281814 -0.787195269923647 17.000000000000000
19.627391981992510 -6.004946702037181 -0.817872867065095 6.000000000000000
19.005006352445079 -5.834814376612009 -0.837838145018100 6.000000000000000
18.412930195137260 -5.592451505990624 -0.849461369226576 8.000000000000000
17.446685171016888 -5.338265355563024 -0.889760315759670 7.000000000000000
16.909367881693765 -5.190926438650799 -0.901495832025431 8.000000000000000
16.603856438169156 -5.056431503383976 -0.925174386367358 8.000000000000000
15.597042786005396 -4.766204780084173 -0.936856024457027 9.000000000000000
15.201084405774292 -4.661795921320142 -0.949936492290858 6.000000000000000
14.872487240377250 -4.522066372306547 -0.962691801852404 9.000000000000000
14.518289148368879 -4.431414912639006 -0.975282052743616 10.000000000000000
13.963561795292300 -4.245582410071364 -1.005765602941387 7.000000000000000
13.568181772773773 -4.120619914840887 -1.004320101229730 7.000000000000000
13.245432334398018 -4.037048775632130 -1.011997007674281 7.000000000000000
11.710414944311960 -3.571364907508155 -1.093941733546341 7.000000000000000
10.692187668682138 -3.250598347515130 -1.156880184818878 8.000000000000000
9.810191433968537 -3.009509385937015 -1.209999788311620 9.000000000000000
9.083143764185653 -2.777951272152038 -1.227540666365704 10.000000000000000
8.423973356257132 -2.565609171557668 -1.289084004128523 9.000000000000000
8.274169805024979 -2.539752194926137 -1.415740969107420 4.000000000000000
7.528908918994522 -2.285213608894658 -1.528209052296358 7.000000000000000
5.750201680492722 -1.760275720267678 -1.643831528925815 12.000000000000000
0.321881226309561 -0.099008184077896 0.088974657701096 0.000000000000000
20.227000461414868 -6.270446343142851 3.412534998382405 52.000000000000000
0.437785910038682 -0.135960778000758 0.061691905125966 0.000000000000000
0.501854353592398 -0.154773362043187 0.044672893501521 0.000000000000000
20.213391599752153 -6.224520804684538 0.900271385097380 55.000000000000000
20.207178952651894 -6.260837844626245 0.711147381673897 44.000000000000000
20.199067920394267 -6.219109829428184 0.647689386782654 48.000000000000000
20.216450892085362 -6.263875247472200 0.584957944701239 43.000000000000000
20.222386249259294 -6.221625235981406 0.523518957661493 53.000000000000000
20.209044476131059 -6.255628377980130 0.460254490771575 53.000000000000000
20.204041119729826 -6.214866773684889 0.397791317830103 52.000000000000000
20.224374495441303 -6.260689317979335 0.333944377703894 39.000000000000000
20.211412271268344 -6.217325871595406 0.272023353263450 51.000000000000000
20.227733161274372 -6.261748244137792 0.207277822710918 45.000000000000000
20.228859186999898 -6.217894917450117 0.147295522755758 54.000000000000000
20.225821770063312 -6.255367734621331 0.083105995753351 50.000000000000000
20.234949371389639 -6.219636085602772 0.020939386865594 51.000000000000000
20.223862391066270 -6.254575863109821 -0.043459777055177 48.000000000000000
20.213651262212078 -6.212207869899579 -0.104623498788641 51.000000000000000
20.141710504917171 -6.226984899697769 -0.166934236129273 7.000000000000000
20.126391240686104 -6.215838926067036 -0.290612004878213 6.000000000000000
20.114566712189340 -6.250687450192785 -0.353624682367847 8.000000000000000
20.122319745920226 -6.214791832495031 -0.416116206117008 8.000000000000000
20.155530640986516 -6.225730819307017 -0.543508435118149 7.000000000000000
20.127211383917899 -6.249096716496098 -0.602990660404226 7.000000000000000
20.145719861422695 -6.216421566714594 -0.667254122331721 10.000000000000000
20.151766933452699 -6.257372859448147 -0.731116738449820 9.000000000000000
20.086564270548990 -6.196912714587285 -0.788993568879419 14.000000000000000
19.559016542446180 -6.057278634106396 -0.815832556293324 6.000000000000000
18.379948673086460 -5.652015601634332 -0.849596860293296 8.000000000000000
17.403337162299088 -5.390564006491843 -0.888861268002321 8.000000000000000
16.576646923712023 -5.110938798706769 -0.925397218572484 8.000000000000000
15.582058043494552 -4.821087562797914 -0.938031388203828 10.000000000000000
15.160147737586428 -4.706149088201585 -0.948565307327715 6.000000000000000
14.858407725110300 -4.574419395543003 -0.963851555479917 8.000000000000000
14.504549041703555 -4.482541406258591 -0.976434929892568 9.000000000000000
13.931721825017863 -4.288259376751498 -1.004864573377694 8.000000000000000
13.544180888943316 -4.164496141927131 -1.004196154816324 7.000000000000000
13.218003162548108 -4.078474148686524 -1.011398913065696 7.000000000000000
11.692157390331733 -3.610057044543375 -1.094045691955943 7.000000000000000
10.675063212552793 -3.285729112168987 -1.156860920291099 8.000000000000000
9.801334283373684 -3.044264257753696 -1.211168463955144 9.000000000000000
9.075081329811638 -2.810180137208739 -1.228727590684249 10.000000000000000
8.412959977319851 -2.594174921039865 -1.289526929899452 9.000000000000000
7.522482663930016 -2.312037366755405 -1.529589764378216 8.000000000000000
5.738477879253864 -1.778082373880061 -1.642813806167170 13.000000000000000
20.185771316849891 -6.274382855936899 4.540623156082185 42.000000000000000
20.075720946633975 -6.296668155108392 3.393108171571711 34.000000000000000
20.113595853577468 -6.291876501347524 2.272951950615225 29.000000000000000
0.520905453411119 -0.163441848326158 0.037828773736308 0.000000000000000
20.204773321581783 -6.299347054556833 0.899494170829739 50.000000000000000
20.134131502490810 -6.313729556850106 0.709585514880531 33.000000000000000
20.201931772346427 -6.297712278403409 0.646802686372661 33.000000000000000
20.120702856755852 -6.309106783553588 0.583619334749061 48.000000000000000
20.213761557277291 -6.296480707046328 0.522458001946884 42.000000000000000
20.147311881505413 -6.312383157935713 0.459276999624025 37.000000000000000
20.203064015833540 -6.292215956171042 0.396595616684111 38.000000000000000
20.132370016126121 -6.307209228220671 0.333467590459808 37.000000000000000
20.206686885624364 -6.293402933463881 0.270730872529050 30.000000000000000
20.124398472009737 -6.304466785972963 0.207399580165298 52.000000000000000
20.220225914172197 -6.292771351733698 0.145951708147227 39.000000000000000
20.171645450215127 -6.314773799333025 0.082675289771705 35.000000000000000
20.173326811996205 -6.276572014065465 0.020785438459565 37.000000000000000
20.131874230773452 -6.301117602393518 -0.042661392836736 37.000000000000000
20.205130574190974 -6.287006416603127 -0.106154490976443 32.000000000000000
20.136938216364062 -6.302836621153219 -0.168636904296364 7.000000000000000
20.133299391315710 -6.257075870048936 -0.227888103711780 7.000000000000000
20.110184766213845 -6.287792527341622 -0.291979592538596 7.000000000000000
20.125081642097111 -6.293151202769465 -0.418402929090924 7.000000000000000
20.121534850205467 -6.252885735410530 -0.479264124579223 8.000000000000000
20.165863307013474 -6.306753846799900 -0.546358378414800 9.000000000000000
20.141066632060994 -6.331424937078467 -0.606152093876085 7.000000000000000
20.152171577815984 -6.296156227965319 -0.670093056215169 8.000000000000000
20.161856280255893 -6.338460513919678 -0.734283285504833 10.000000000000000
20.059102157742718 -6.264866191424368 -0.789811424885182 13.000000000000000
19.528290682855683 -6.122090458431884 -0.816353166350148 6.000000000000000
18.978863522411853 -5.899000249414257 -0.838574136421101 6.000000000000000
18.350545168928580 -5.712721246643525 -0.850010195126886 9.000000000000000
17.382450766715358 -5.450441317523115 -0.889781834702732 8.000000000000000
16.885436141486402 -5.247790479361079 -0.902074074873047 7.000000000000000
16.519100557726496 -5.154944630295631 -0.923000559985705 8.000000000000000
15.548068700669205 -4.869351999719086 -0.937453385453614 10.000000000000000
15.111564291774158 -4.747643421416598 -0.946465441388815 7.000000000000000
14.840379770794950 -4.625419808417753 -0.964636673058229 9.000000000000000
14.475595994502370 -4.528357526415085 -0.976042377694486 9.000000000000000
13.911016179217636 -4.334714243998732 -1.005189970887710 8.000000000000000
13.527534188722843 -4.210915327899272 -1.004911879617979 7.000000000000000
13.201683458320868 -4.123753887402053 -1.012097012888399 7.000000000000000
11.673767583842739 -3.648670396182865 -1.094148504372821 7.000000000000000
10.654099286534038 -3.319437269993131 -1.156257634492846 9.000000000000000
9.784949439728386 -3.076253135104160 -1.211032175987685 9.000000000000000
9.063213339396825 -2.841017269148047 -1.229205181859146 10.000000000000000
8.405511788045914 -2.624085080451557 -1.290757255938866 9.000000000000000
8.277856448251534 -2.573324241309592 -1.419594476751954 4.000000000000000
7.985139825421519 -2.491256253307462 -1.505134688677743 8.000000000000000
7.515956084816362 -2.338847615804141 -1.530970292510756 8.000000000000000
5.723204147849418 -1.794393019164318 -1.640476837725024 13.000000000000000
0.364440526516017 -0.114663010426696 0.078716416834074 0.000000000000000
0.427377266072651 -0.134794871580901 0.063371834827968 0.000000000000000
20.082179940294438 -6.358613838267871 2.271224293108716 44.000000000000000
20.106105971901389 -6.349142888382055 1.147172959291142 46.000000000000000
20.108883367047564 -6.344300326914890 0.897033229690613 54.000000000000000
20.117679626029954 -6.385741047070248 0.708595257013979 47.000000000000000
20.102308371275317 -6.341441589168170 0.645218614095460 44.000000000000000
20.115663811878374 -6.384965778374223 0.582625162126792 51.000000000000000
20.129192327543258 -6.345377952570026 0.521348622291659 52.000000000000000
20.127020226213293 -6.383134315077058 0.458200609651921 46.000000000000000
20.118540780717279 -6.341112093792312 0.395865631660652 43.000000000000000
20.127268633133962 -6.383116865335083 0.332236270478774 45.000000000000000
20.114624296039779 -6.339754976059879 0.270469630368384 49.000000000000000
20.142050924226339 -6.388131193756521 0.205709005762234 50.000000000000000
20.147001625836914 -6.345605090460126 0.145767480366332 52.000000000000000
20.128638980248596 -6.377791964953353 0.082008309548201 50.000000000000000
20.134249064297723 -6.340931542473875 0.020085206099436 49.000000000000000
20.141894181240517 -6.382220340568985 -0.044662959919498 45.000000000000000
20.124439331213832 -6.337257667205556 -0.105488648704521 44.000000000000000
20.135656309745023 -6.380037790374473 -0.170468099282235 6.000000000000000
20.120702119304209 -6.330369085639411 -0.229371612487690 7.000000000000000
20.120171046700047 -6.368824800173179 -0.294404255756971 6.000000000000000
20.132289334063056 -6.334255043724333 -0.356479732960082 7.000000000000000
20.142651273620359 -6.376810808139510 -0.421390295214980 7.000000000000000
20.127948413238698 -6.332562211270961 -0.481818907268235 8.000000000000000
20.141860972593939 -6.376264500272882 -0.547424811292012 8.000000000000000
20.150752903329018 -6.373420715663791 -0.672490555697837 10.000000000000000
20.031403692905403 -6.332710973541054 -0.790627667051193 12.000000000000000
19.489798346736556 -6.184173555062252 -0.816358342976311 6.000000000000000
18.899642802768202 -5.944971095352642 -0.835543248327583 7.000000000000000
18.320936837707553 -5.773293695431605 -0.850421438912164 9.000000000000000
17.361351689295383 -5.510250058445152 -0.890701330281232 8.000000000000000
16.853773923961032 -5.301945393071883 -0.902019201324229 8.000000000000000
16.491559466556708 -5.209116322531699 -0.923218556221677 8.000000000000000
15.513928214388446 -4.917443946452337 -0.936872785410685 10.000000000000000
15.092901449527044 -4.799526803204039 -0.947264356414993 7.000000000000000
14.818414374856580 -4.675038749304704 -0.965046712933531 9.000000000000000
14.453999849637533 -4.576693933656856 -0.976420484811792 9.000000000000000
13.886399001103886 -4.379758122272897 -1.005104245885095 8.000000000000000
13.510723332817829 -4.257276250275495 -1.005626735015520 7.000000000000000
13.173974808804786 -4.164940516717365 -1.011495089610321 7.000000000000000
11.670154675446977 -3.692636894638632 -1.096306333925375 7.000000000000000
10.647881544520892 -3.358507052164384 -1.157985294500757 8.000000000000000
9.051235140592517 -2.871807595697021 -1.229681993757610 10.000000000000000
8.401613484708552 -2.655387095161146 -1.292775710834053 10.000000000000000
8.274104801038540 -2.604165756718075 -1.421739213863507 4.000000000000000
7.985263047414185 -2.522493463253888 -1.508316975297803 8.000000000000000
7.502104357248771 -2.362834941519075 -1.530378852135166 8.000000000000000
5.718338912882770 -1.814984453082936 -1.642094530903241 15.000000000000000
20.067569381288781 -6.389057276082028 4.524341294538063 38.000000000000000
20.072715245096770 -6.450654717449233 3.397457596608853 49.000000000000000
20.095715090006291 -6.440936492753515 2.273472993197587 44.000000000000000
20.108406061180261 -6.427627031261913 1.146949321596599 39.000000000000000
20.111138133034324 -6.422809224205331 0.896478687431432 56.000000000000000
20.116074888358870 -6.462984989929410 0.707755347158972 47.000000000000000
20.119798263900904 -6.425124135960225 0.644436637378527 41.000000000000000
20.121670267749646 -6.464812742460310 0.581671671723003 50.000000000000000
20.127651371101397 -6.422638880176216 0.520295457523589 51.000000000000000
20.114026694949541 -6.456469001073557 0.457105648727523 46.000000000000000
20.117064089793061 -6.418320070047933 0.394671892398818 45.000000000000000
20.121877414233978 -6.459076033540512 0.331003974435905 42.000000000000000
20.128320152940201 -6.422166005377036 0.268954997022667 45.000000000000000
20.140469624643380 -6.465437380611590 0.204300958303778 50.000000000000000
20.141660494569582 -6.421609611380106 0.144357942491290 46.000000000000000
20.138301237006431 -6.459021977054235 0.080218162393046 47.000000000000000
20.151644638381107 -6.424727737344256 0.018005836139420 46.000000000000000
20.125152247340889 -6.454278800958164 -0.045937526738034 43.000000000000000
20.119220063559286 -6.413154971007238 -0.107132390831485 41.000000000000000
20.126521178724445 -6.454690131605624 -0.172044592295090 6.000000000000000
20.126717392125318 -6.410203567068343 -0.231550579829971 7.000000000000000
20.118504960442099 -6.446068855588052 -0.296377483270765 7.000000000000000
20.130783797970647 -6.411490149840802 -0.358523228506332 7.000000000000000
20.125904303565765 -6.448871791988253 -0.422806359503887 7.000000000000000
20.126491330597300 -6.409768306061437 -0.484003034936106 7.000000000000000
20.147807107140604 -6.456169062400932 -0.550079042756873 7.000000000000000
20.139488295589665 -6.408698567001643 -0.608477352025562 8.000000000000000
20.149034975030897 -6.450758132528613 -0.674889210917308 8.000000000000000
20.141427258977895 -6.409267803721633 -0.735584155541654 9.000000000000000
19.992157022516853 -6.396521196664871 -0.790705893623951 14.000000000000000
19.451104800514525 -6.246069628030654 -0.816360699870389 6.000000000000000
18.884434153114775 -6.012682689754890 -0.837080683702892 7.000000000000000
18.276058445062262 -5.828464727921379 -0.849709104972138 8.000000000000000
17.313718413907146 -5.560683743593088 -0.889490101906612 8.000000000000000
16.821934815557896 -5.355945746295802 -0.901961903651391 8.000000000000000
16.437518353128027 -5.253885476797045 -0.921141048694241 8.000000000000000
15.483386996571525 -4.966709101928885 -0.936640565511173 9.000000000000000
15.055309712630120 -4.844605266478183 -0.946246584670248 7.000000000000000
14.803780679856722 -4.727238971391202 -0.966204243294479 9.000000000000000
14.432237482491320 -4.624940440929407 -0.976797257789461 9.000000000000000
13.865378499124780 -4.426033025575521 -1.005426962654350 7.000000000000000
13.482524582372886 -4.299524709399563 -1.005077560980779 7.000000000000000
13.168562167114025 -4.214136922922918 -1.013490337946538 7.000000000000000
11.651480466108836 -3.731150844380863 -1.096407629112578 7.000000000000000
10.637806113683805 -3.396201053537027 -1.159129729848036 8.000000000000000
9.772149557375826 -3.109567517200652 -1.211547565417196 9.000000000000000
9.039147226911176 -2.902555121174260 -1.230158168414750 10.000000000000000
8.382964409101465 -2.681039708978190 -1.291640288752470 10.000000000000000
8.270232835966926 -2.635020714171326 -1.423884180115801 4.000000000000000
7.974381396738742 -2.549523421081759 -1.508736436542791 7.000000000000000
7.495385461735393 -2.389600444140662 -1.531758750749519 8.000000000000000
5.713393200280151 -1.835578292500088 -1.643712261271247 12.000000000000000
20.065729490725015 -6.466014781436705 4.527744763347196 40.000000000000000
20.074502000466076 -6.529075189734982 3.400170087516356 46.000000000000000
20.086353707426479 -6.515501861254357 2.273733324806151 45.000000000000000
20.117942363058397 -6.508861500910342 1.146964065932134 41.000000000000000
20.120630325229481 -6.504068501677729 0.896068235656665 51.000000000000000
20.110397039690820 -6.538973740757143 0.706877068760698 46.000000000000000
20.118065055431384 -6.502406931788173 0.643524508297996 40.000000000000000
20.123584672289908 -6.543459037913713 0.580702540490860 50.000000000000000
20.133359407303754 -6.502625039713458 0.519245040868033 49.000000000000000
20.115850387889456 -6.535115170147108 0.455971211558388 50.000000000000000
20.119063198830734 -6.496925323747014 0.393455486478728 48.000000000000000
20.119967803686546 -6.536406389586553 0.329737627258316 40.000000000000000
20.130355170552512 -6.500790227357705 0.267573357078034 43.000000000000000
20.131040923233588 -6.540164471887884 0.203006483738645 50.000000000000000
20.136029241863113 -6.497657803592709 0.142947639562096 52.000000000000000
20.140091878008292 -6.537749744919424 0.078587030318082 49.000000000000000
20.146048503956973 -6.500802631545227 0.016477342248180 50.000000000000000
20.123234870196054 -6.531614385336425 -0.047629129540106 45.000000000000000
20.117484147235405 -6.490419753768400 -0.108892907287375 44.000000000000000
20.124650035042073 -6.532011830648415 -0.173877612462911 7.000000000000000
20.124869798920308 -6.487518418694130 -0.233452867664239 7.000000000000000
20.112769864927564 -6.522058999160485 -0.298200373702125 6.000000000000000
20.117660596576435 -6.484843094133758 -0.360078410412177 8.000000000000000
20.116435332393682 -6.523546410781378 -0.424572086412403 8.000000000000000
20.128507930404432 -6.488363070816213 -0.486375063581546 8.000000000000000
20.149666614998669 -6.534874568790286 -0.552536345202540 8.000000000000000
20.130070821949037 -6.483403317572439 -0.610383953445633 7.000000000000000
20.147015926935556 -6.528168082202846 -0.677289031877307 8.000000000000000
20.139591253006163 -6.486599488436710 -0.738052706387179 11.000000000000000
