# This PCD file was generated using the MATLAB® pcwrite function
# from Computer Vision Toolbox®.
# .PCD v.7 - Point Cloud Data file format
VERSION .7
FIELDS x y z intensity
SIZE 8 8 8 8
TYPE F F F F
COUNT 1 1 1 1
WIDTH 642
HEIGHT 1
VIEWPOINT 0 0 0 1 0 0 0
POINTS 642
DATA ascii
13.767607903274397 0.938766481017133 -0.611508281314777 31.000000000000000
13.663927698361608 0.959980625817749 -0.643803879354376 28.000000000000000
13.752300445676086 0.962196666666316 -0.732363260867352 53.000000000000000
13.994853919689044 0.992912373047616 -0.793675525437621 29.000000000000000
13.487080381286612 0.935980650599589 -0.826830622133669 7.000000000000000
13.264115991505291 0.930629900849745 -0.882639996872436 37.000000000000000
13.057866439194424 0.887806851447095 -1.322736282897518 20.000000000000000
11.283868789985767 0.778253570211241 -1.441775211867533 9.000000000000000
9.698151705552087 0.660692189580480 -1.539402516833548 8.000000000000000
9.038396876650644 0.628959987314737 -1.559628929824019 13.000000000000000
8.967683087913716 0.631399302860054 -1.700930976695621 10.000000000000000
6.430540900833959 0.438724016982484 -1.679707768332683 3.000000000000000
12.888208206531568 0.871542532991768 2.342559828486929 17.000000000000000
19.319545818317753 1.285794991550802 2.240474928046520 3.000000000000000
16.001561367356636 1.074821416394990 0.903284705891329 3.000000000000000
15.731518318374929 1.017060134024646 0.617755845710227 7.000000000000000
15.575677150242393 1.014712620990693 0.525540009025247 36.000000000000000
14.033027223762655 0.926358286741838 0.441024594212162 6.000000000000000
13.868741136483859 0.925819456113416 0.359661833015274 24.000000000000000
13.920639409370759 0.903226360320289 0.317638581045195 23.000000000000000
13.891415855476778 0.926597070478650 0.277901310771014 23.000000000000000
13.875106900515242 0.902440283264653 0.236593347077568 24.000000000000000
13.877624680870715 0.926571378629312 0.196670441793704 16.000000000000000
13.743933169555806 0.927046983747545 0.118461558036933 17.000000000000000
13.851037992651657 0.905702100717683 0.073650801366300 4.000000000000000
13.860047398139297 0.905804235250699 -0.008049281841857 17.000000000000000
13.865847828727574 0.930127556276020 -0.048161913591985 13.000000000000000
13.840595763813800 0.905611974334455 -0.088659681093695 16.000000000000000
13.890608533537321 0.934181735419685 -0.130863006413929 7.000000000000000
13.200452665051554 0.872673870281226 -0.177767576513543 18.000000000000000
13.381500753673432 0.899146348486369 -0.226469892391552 19.000000000000000
13.263937342536991 0.873797243555956 -0.258441522432871 20.000000000000000
13.201131305424290 0.894866265697608 -0.294242990569214 18.000000000000000
13.778260592959610 0.887897640202766 -0.369932871724561 13.000000000000000
13.779006170886865 0.911520473675516 -0.410945222652332 11.000000000000000
13.684918053376617 0.886069695548620 -0.444611927795610 25.000000000000000
13.649552182862362 0.908629225284749 -0.482525731128443 17.000000000000000
13.853393280998288 0.937311018203545 -0.536683269402934 11.000000000000000
14.298569556118933 0.926666993313077 -0.698170221523967 34.000000000000000
13.530358366574188 0.909730098412709 -0.712931720693632 18.000000000000000
13.555680954752381 0.890816197580065 -0.834294803973416 31.000000000000000
13.491381366038407 0.912790317130131 -0.868276114621584 5.000000000000000
13.250542992574374 0.888196558214354 -1.116036532806137 0.000000000000000
14.706196035092139 0.969501272672744 -1.294313805035758 8.000000000000000
13.007165306589600 0.841872262897219 -1.316213679212712 23.000000000000000
12.278039113055337 0.832326885567916 -1.432382698835648 9.000000000000000
11.276389695047962 0.739336837392457 -1.441030156473853 8.000000000000000
10.426468202670868 0.697249562005616 -1.509247039451524 7.000000000000000
9.026584981787776 0.597978469609615 -1.557439386867574 15.000000000000000
8.963684331122444 0.600649888318749 -1.700464001156986 10.000000000000000
6.429756142871571 0.416833941801265 -1.680061180659501 3.000000000000000
12.596903390795989 0.778764174958518 2.299381927319192 4.000000000000000
15.832900760961788 0.999176141578474 1.924360071997865 1.000000000000000
15.947110632273098 1.018111412199445 0.901023139299124 3.000000000000000
15.712821121089753 0.962268425817847 0.616750206531759 8.000000000000000
15.556998084535513 0.960451605320038 0.524660224759301 39.000000000000000
14.162042781926543 0.880447566250709 0.439623122181155 22.000000000000000
14.133181116366650 0.904323782273444 0.398201808364277 19.000000000000000
14.197639758835782 0.884073043839862 0.355339732287089 16.000000000000000
13.704481262844469 0.875038555005609 0.280278356089587 31.000000000000000
13.580143376585792 0.849278641356804 0.241665155700292 22.000000000000000
13.646760111936613 0.874062243154789 0.201146991848943 27.000000000000000
13.610166860617545 0.849742907678916 0.161192891432555 2.000000000000000
13.784875583852349 0.880385053528698 0.116562673974962 14.000000000000000
13.831954042621250 0.857561422123872 0.073517414174803 11.000000000000000
13.854091025155141 0.881820719780727 0.032747796092439 12.000000000000000
15.623572052002180 0.970449475652501 -0.027393979851368 29.000000000000000
13.854889054069792 0.882042634857378 -0.048443336257534 18.000000000000000
13.821574897861256 0.857482063106083 -0.088557553561220 13.000000000000000
13.819674518647972 0.884873784256321 -0.128305197545268 8.000000000000000
13.209234040399572 0.827282714104484 -0.178912614021655 19.000000000000000
13.159499678926657 0.803501085991840 -0.215602608503718 14.000000000000000
13.324650757159707 0.829074701257909 -0.262649522145864 25.000000000000000
13.333774526702744 0.851858754235124 -0.303011750211775 26.000000000000000
13.296110393368604 0.832649910341942 -0.339786588973065 30.000000000000000
13.332977930579309 0.855916040315336 -0.381773569462546 24.000000000000000
13.474285522295895 0.835340246628327 -0.430586497758801 20.000000000000000
13.790073728665787 0.864153398505856 -0.493450457715146 32.000000000000000
13.293409570391461 0.854769091616838 -0.535467725214836 13.000000000000000
13.350823520652922 0.836967520360012 -0.578839295884664 19.000000000000000
14.290736646900285 0.901573962382244 -0.654892257493607 32.000000000000000
13.467592876056472 0.838888624050639 -0.667716395331377 28.000000000000000
13.571095954345607 0.863816297763876 -0.717285496041577 31.000000000000000
13.675422945180300 0.842363834710412 -0.765853050952511 41.000000000000000
13.722767744907671 0.866882155697034 -0.811761459070653 44.000000000000000
13.878836118345019 0.849385501459743 -0.867080987596129 46.000000000000000
13.882154971968772 0.873510846590769 -0.908938148446333 41.000000000000000
13.302942027786971 0.843404312869040 -1.123113899042737 4.000000000000000
12.270726294867242 0.789914849208451 -1.431806748589790 9.000000000000000
11.284537286642649 0.700596790166003 -1.443019166578792 8.000000000000000
10.418733791963522 0.661377867293936 -1.508296250164088 7.000000000000000
9.030257259084607 0.567007982939295 -1.558832405789330 15.000000000000000
8.963459771838256 0.569919892446201 -1.700957597591523 10.000000000000000
6.432675857244686 0.394814601329081 -1.681709345216561 3.000000000000000
0.539129858423562 0.031425864381546 0.096269626238286 0.000000000000000
15.802373901337516 0.943790454548150 1.920633573406085 2.000000000000000
15.968415546778447 0.963434157516893 0.900634232970343 3.000000000000000
15.693929899946758 0.907612069047119 0.615746554818844 7.000000000000000
14.226716974823818 0.856878844320043 0.480399546613032 14.000000000000000
14.194917494299498 0.832087812593876 0.438683106342015 3.000000000000000
14.142157039193497 0.855693191351243 0.397358893493654 6.000000000000000
14.222460968510214 0.835434996740503 0.354294697786491 8.000000000000000
14.153490631362571 0.859184321770279 0.313662590883930 21.000000000000000
13.540902123640731 0.801857827960760 0.241706993416015 10.000000000000000
13.567638495426127 0.825668035037822 0.202206216302452 8.000000000000000
13.275091046026814 0.797740453506968 0.169060356398485 7.000000000000000
13.330529750137234 0.779828154283649 0.128096811841583 9.000000000000000
13.829653560304813 0.833502674766805 0.114544863843491 4.000000000000000
13.880659070575193 0.810508955823870 0.071237845411713 6.000000000000000
13.854923917227431 0.834017400044957 0.031983497930573 18.000000000000000
13.829765884819688 0.809688288663601 -0.008379778555459 23.000000000000000
13.831771758382081 0.833837491608350 -0.048239589278621 30.000000000000000
13.245772604625442 0.782490112232210 -0.103174070061936 20.000000000000000
13.836458472674130 0.837443661049697 -0.129807201668094 2.000000000000000
13.185902054997719 0.781423993090790 -0.178388943132808 20.000000000000000
13.441109659281457 0.784687342584981 -0.270112143159865 7.000000000000000
13.506193151962920 0.808551751034969 -0.314234129719419 14.000000000000000
13.420458032017313 0.788341003340634 -0.348445146169144 26.000000000000000
13.341665966410346 0.810050581384722 -0.383043989233145 14.000000000000000
13.439022277455246 0.788393718991159 -0.428818012582040 11.000000000000000
13.611328767204993 0.813847095332633 -0.481123203891536 6.000000000000000
13.520964513499719 0.789287057826513 -0.513580560039915 0.000000000000000
13.443123462225941 0.792093895948454 -0.587069718111490 6.000000000000000
13.499216650243506 0.816078898980230 -0.631884683372966 13.000000000000000
13.735191212626889 0.796021971644400 -0.691853777049300 42.000000000000000
13.695320780040813 0.818917107920825 -0.729224329424248 26.000000000000000
13.811501096897286 0.797094248512551 -0.779265742694838 29.000000000000000
13.639948477017789 0.818191154915112 -0.804449545021258 27.000000000000000
13.875493350542245 0.801448804210352 -0.867451058430047 46.000000000000000
13.954507745659287 0.826696900450230 -0.917039909350132 49.000000000000000
13.461409896223117 0.796069305407848 -0.905362304650571 20.000000000000000
13.090960236695750 0.798216417917018 -1.328635405140606 13.000000000000000
12.275114887398908 0.747687101469587 -1.433110092914817 9.000000000000000
11.280724961276253 0.661750158273748 -1.442957422501497 8.000000000000000
10.410872832170773 0.625560769842544 -1.507344701368768 7.000000000000000
9.033819739096804 0.536011272207787 -1.560225936363401 15.000000000000000
8.955361088698552 0.539256798774737 -1.699529176898513 10.000000000000000
6.427952990243916 0.373062669412541 -1.680768062284339 4.000000000000000
12.500116384522180 0.680854167225171 2.949509840770989 5.000000000000000
0.543713220988697 0.029852924684548 0.094567853313691 0.000000000000000
15.791567341522443 0.888973874021282 1.918692166511664 1.000000000000000
15.905568383097998 0.907096053087926 0.898184151616492 3.000000000000000
15.686843773239591 0.853270000449569 0.614826023688904 8.000000000000000
14.207501634344840 0.807494027386518 0.479655754465554 1.000000000000000
14.198955393275529 0.807712243931356 0.396132954330116 10.000000000000000
14.163122610396542 0.785648917837307 0.354167083778368 4.000000000000000
13.137585580606185 0.750752734134018 0.248971672075077 19.000000000000000
13.188943603321075 0.728462995175171 0.209358209232664 22.000000000000000
13.199716417136782 0.751078042489937 0.170281622537329 28.000000000000000
13.203037697858033 0.732775005627751 0.131032990210473 23.000000000000000
13.213598139121759 0.755602306063722 0.091611773608344 23.000000000000000
13.224489119635944 0.732659071895952 0.052317075691638 19.000000000000000
13.194845585686700 0.754878220632840 0.014719121824813 21.000000000000000
13.185545327997588 0.732075740404120 -0.023556108237798 22.000000000000000
13.796494568997870 0.785638216754741 -0.047548667256079 19.000000000000000
13.218251426317645 0.736568700265877 -0.102607601663244 19.000000000000000
13.346148588285748 0.737453917907779 -0.187474326825459 17.000000000000000
13.271885196237232 0.759403917498553 -0.222506534358457 19.000000000000000
13.325818351854432 0.737167090805691 -0.264119797935096 24.000000000000000
13.371061818341603 0.760318448428094 -0.306679746157504 17.000000000000000
13.468811243975690 0.742484990459722 -0.352256114034154 22.000000000000000
13.414045278516269 0.764839617701789 -0.388598596610975 20.000000000000000
13.499353954093943 0.742620597376316 -0.433749317167641 52.000000000000000
13.465637977660659 0.742074777897216 -0.510090939370517 16.000000000000000
13.526026498675963 0.765941550243660 -0.555171384229208 17.000000000000000
13.591078689955559 0.747095782723186 -0.599875071760930 32.000000000000000
13.679113316083022 0.771558767283267 -0.647832870855259 31.000000000000000
13.851258310403075 0.773536241374750 -0.744066604038044 46.000000000000000
13.752286112758499 0.748812189302903 -0.774440105766165 49.000000000000000
13.545011503882289 0.769926083606457 -0.795975119200704 11.000000000000000
13.434162923614759 0.749358968249979 -0.824263312989126 12.000000000000000
13.481589419789122 0.773049767107381 -0.869285771087243 25.000000000000000
14.581816408045981 0.815400490547113 -1.281119084768171 12.000000000000000
13.309267595193301 0.755428536253973 -1.360023839296644 12.000000000000000
12.275404183494015 0.705400646785812 -1.433787134640356 9.000000000000000
11.284657748248309 0.622937242278283 -1.444263639125769 8.000000000000000
10.414665226545450 0.589759867432768 -1.508681573067933 7.000000000000000
9.021680355202365 0.505179840020247 -1.558034552470521 13.000000000000000
8.962684440002851 0.508463184939423 -1.701945018387812 10.000000000000000
6.423153453475643 0.351331282629452 -1.679826332622039 4.000000000000000
12.476860830048480 0.637722485907233 2.944210770238361 34.000000000000000
0.531728863857028 0.027444359959276 0.096187945391656 0.000000000000000
15.772599825040690 0.834122554515503 1.916039618328288 1.000000000000000
15.910492109600487 0.852191767170602 0.897403760214509 2.000000000000000
15.671566862864079 0.798889979624434 0.613852534757132 7.000000000000000
15.515809362164660 0.798673616132206 0.522046402540700 36.000000000000000
15.559499445928189 0.800396755097559 0.431062932744500 24.000000000000000
13.927255082985669 0.711105447261716 0.314509503398537 3.000000000000000
13.790438592960825 0.733930055637323 0.276591284433556 8.000000000000000
13.384080792108119 0.707043283176006 0.164813340125968 22.000000000000000
13.275293073941889 0.687597957461044 0.128235039161683 34.000000000000000
13.209979946761168 0.710008282077801 0.091009434185177 18.000000000000000
13.476646725214263 0.688468640815849 0.042855853208073 19.000000000000000
13.259203229454259 0.709868670463891 0.011586278084462 11.000000000000000
13.413691301487493 0.688032883315010 -0.033518398363710 13.000000000000000
13.459790104514610 0.711375978454598 -0.075031624257560 24.000000000000000
13.458275961329948 0.692235277796669 -0.114470379739332 28.000000000000000
13.352317223980142 0.714715366255511 -0.149366253221605 17.000000000000000
13.542192643730488 0.692579227430677 -0.198460121062164 19.000000000000000
13.390049830161617 0.691626763205697 -0.268574016228576 17.000000000000000
13.351536600113231 0.714032225979444 -0.306195940750767 16.000000000000000
13.425193635366274 0.695784706784508 -0.350182448528870 12.000000000000000
13.482275759548802 0.719089868536557 -0.393893350508855 16.000000000000000
13.475732171602258 0.695911595114090 -0.432817126836161 9.000000000000000
13.444780274735326 0.718561843729077 -0.470391320830660 9.000000000000000
13.529797281803054 0.696064556424226 -0.515678382727515 4.000000000000000
13.789639615311872 0.721629002487653 -0.576684946482803 51.000000000000000
13.830957376448922 0.725560632589577 -0.661434547652890 39.000000000000000
13.883109651511823 0.750102882589992 -0.705539224610035 45.000000000000000
14.066791426692429 0.727577896807986 -0.764347531237179 33.000000000000000
13.255090765699904 0.674832768555675 -0.769372633788417 16.000000000000000
13.517584524268379 0.722950722845617 -0.794029828133433 36.000000000000000
13.402611233317650 0.702829662983916 -0.821835096896647 44.000000000000000
13.251382296679466 0.701794785935554 -0.884621381771237 21.000000000000000
14.606156757671865 0.765314150173033 -1.284855858930432 20.000000000000000
13.313542336775509 0.709562118551474 -1.361316071438231 15.000000000000000
12.275544402955529 0.663113438987217 -1.434464317244030 9.000000000000000
11.284512503658641 0.584096414817139 -1.444885924785281 9.000000000000000
10.410478162705001 0.553989276642881 -1.508492454708414 7.000000000000000
9.028921530202856 0.474124848482901 -1.560324793170384 13.000000000000000
8.946604632836923 0.477977456438317 -1.698592914378564 11.000000000000000
6.414496783342908 0.329810916801456 -1.677588863897942 4.000000000000000
12.445601711168823 0.594766212964828 2.937378163473077 29.000000000000000
12.733051676743058 0.604981847765643 2.315757132473232 18.000000000000000
0.590999518548662 0.028502086312116 0.082845939485419 0.000000000000000
15.919221445585473 0.797301025410505 0.896720304774323 3.000000000000000
13.672500124252037 0.681820944473372 0.598934057652317 3.000000000000000
15.500366211926718 0.744936122728092 0.521176904106989 35.000000000000000
15.564031222790758 0.772839776879216 0.475997325925117 26.000000000000000
15.548088118284587 0.746533439225274 0.430264509440203 22.000000000000000
13.947924343751595 0.686875885465739 0.354993756764752 5.000000000000000
15.551471442001606 0.748086244612061 0.338101871832840 37.000000000000000
13.886749931447568 0.686862738406795 0.274203658880639 19.000000000000000
13.890076962083347 0.663085748857043 0.232525114294731 4.000000000000000
13.761122233634879 0.686402753557431 0.195579241701137 7.000000000000000
13.648264894702802 0.662089430665681 0.157259191047639 1.000000000000000
13.546027478442953 0.665641936015788 0.079609761636625 24.000000000000000
13.807055928534416 0.666435224073552 -0.009766695538409 31.000000000000000
13.827713677548871 0.666735495792338 -0.091782755633724 20.000000000000000
13.696115694324520 0.669976101930153 -0.167104017240881 17.000000000000000
13.364396281402893 0.668275907258234 -0.229056324756196 17.000000000000000
13.366270525307023 0.645373536356459 -0.267917210416128 19.000000000000000
13.355802912509692 0.668006948957014 -0.307177360470287 13.000000000000000
13.493181157597114 0.649618602152216 -0.355280819986385 20.000000000000000
13.478508085212306 0.672571811008801 -0.394369389983095 27.000000000000000
13.667416126505232 0.649946004887234 -0.446989456300978 4.000000000000000
14.031458867323606 0.674971030250759 -0.513985337729035 44.000000000000000
13.837772667311661 0.674314154624987 -0.581224626664022 36.000000000000000
13.926247466224346 0.702145837424922 -0.628031274534864 54.000000000000000
13.946769606632060 0.678347867974892 -0.672008560056157 36.000000000000000
14.026883602958753 0.703127898082229 -0.718891591293021 39.000000000000000
14.306065659758410 0.680237236882185 -0.786822324215989 26.000000000000000
14.019464844355833 0.703260814633325 -0.800172834887667 55.000000000000000
13.323132188306984 0.656402986807826 -0.814646515170134 24.000000000000000
13.346969236974745 0.633395983152276 -0.857631550119615 20.000000000000000
13.418606469778883 0.656640771667846 -0.902975602843684 17.000000000000000
13.864285840884049 0.661863563450588 -1.195010684160437 28.000000000000000
14.598561724455953 0.714837705992700 -1.284684566919163 15.000000000000000
13.099808266503324 0.662841360922506 -1.331918476160843 23.000000000000000
12.275535543939583 0.620825998512906 -1.435141632253931 9.000000000000000
11.288171117559957 0.545243255947533 -1.446193017840243 8.000000000000000
10.414017538468938 0.518173977749342 -1.509830062048533 7.000000000000000
9.032154657496795 0.443092563306578 -1.561719172009759 12.000000000000000
8.953710242344055 0.447160585096860 -1.701009312342117 20.000000000000000
6.424664374844364 0.307422781865966 -1.681828423035828 4.000000000000000
4.721488170211853 0.239728079272894 -1.678406070769071 0.000000000000000
12.449521197265643 0.551852613190512 2.937458985139130 27.000000000000000
12.709284282546507 0.561185311040489 2.311675186062764 28.000000000000000
13.094047165790561 0.577742316153845 1.210696929205180 27.000000000000000
13.317023372509972 0.630651203654111 0.830983813182077 1.000000000000000
13.588632344604811 0.634577188963689 0.597629995419508 14.000000000000000
15.480733785754408 0.691288454722617 0.520306051973097 34.000000000000000
15.548509695205237 0.718957159178011 0.475172542589178 21.000000000000000
13.936359670749075 0.659552967374012 0.395926113213178 29.000000000000000
13.864062464411788 0.638648475629445 0.355157876524695 27.000000000000000
13.538960837799385 0.638306314184810 0.279351947371604 20.000000000000000
13.510241753274160 0.614999356792204 0.239357331030385 21.000000000000000
13.557361521815279 0.638417654850656 0.199485462551400 0.000000000000000
13.512424975788649 0.614859758300156 0.160024217677268 21.000000000000000
13.611279664460174 0.642305439558825 0.117826590529639 24.000000000000000
13.574073439342435 0.618917852679282 0.077971121456459 25.000000000000000
13.572743822985057 0.642189003016604 0.038780335324455 26.000000000000000
13.639263365353301 0.618680861508636 -0.004197862449983 17.000000000000000
13.813541058923619 0.642877782303408 -0.050482227942371 21.000000000000000
13.600046094090866 0.618717442261477 -0.082615421698948 21.000000000000000
13.889937012186611 0.646564111829058 -0.135277306107060 43.000000000000000
13.452346510697289 0.622268906898732 -0.234662786827537 19.000000000000000
13.402226719014740 0.599260901320676 -0.270750967964424 21.000000000000000
13.343937100162643 0.621926936666938 -0.307180306251044 25.000000000000000
13.405326548962636 0.603208939141375 -0.350382096193256 23.000000000000000
13.678116939925086 0.626203349942060 -0.408531242429274 27.000000000000000
13.635485603898866 0.602824714315737 -0.445504250485650 24.000000000000000
13.712400476907641 0.626152500498968 -0.491421575159513 21.000000000000000
13.681558898066411 0.602705878923018 -0.528694325577253 20.000000000000000
13.730224050814140 0.626366240754528 -0.573481012880545 23.000000000000000
13.794820237003098 0.653794687452461 -0.618026173227381 21.000000000000000
13.994658801117133 0.630268485669220 -0.676840815454667 32.000000000000000
14.003136671963670 0.654656265201702 -0.717567038372981 34.000000000000000
13.903813401868939 0.630245211700284 -0.751064636532804 40.000000000000000
13.243490754482885 0.610531650086720 -0.807449234729588 23.000000000000000
13.573735726904834 0.610323698375034 -0.920089081911775 25.000000000000000
13.800756839089953 0.614030182896535 -1.187947396466445 26.000000000000000
13.139407552185958 0.617689425372760 -1.338223837681140 24.000000000000000
12.275377646741010 0.578527612559647 -1.435818929496242 9.000000000000000
11.283810907231594 0.506439885113387 -1.446131057335293 9.000000000000000
10.417430167198104 0.482332850142491 -1.511168189134713 7.000000000000000
9.027483327897002 0.412218314610740 -1.561320072162984 12.000000000000000
8.964587611222075 0.416210465238137 -1.704388580595714 10.000000000000000
6.415854270363821 0.285950151800996 -1.679590324052840 5.000000000000000
4.741678379396277 0.221947678370462 -1.688785489512786 0.000000000000000
12.480768016046275 0.508667651514337 2.942912366668185 21.000000000000000
12.721003421751176 0.517271362228762 2.312662496600885 22.000000000000000
13.065921273086690 0.532754581534469 1.208473409503438 26.000000000000000
13.236817184535770 0.539303515806168 0.827583529797678 27.000000000000000
13.336406104683814 0.542359128262788 0.594509561290189 30.000000000000000
13.404748160050588 0.588120078245510 0.438910124082757 29.000000000000000
13.392444894137482 0.564836107149972 0.398866487138417 31.000000000000000
13.415857067847957 0.545576952627812 0.358658956109403 31.000000000000000
13.451492100811027 0.568707147692571 0.318942790663551 30.000000000000000
13.418798572732618 0.545509239571921 0.279909860554708 28.000000000000000
13.442177937138377 0.568607616376823 0.239974944275460 33.000000000000000
13.493396199505503 0.591716212933086 0.200204293702894 23.000000000000000
13.476386355406270 0.568338288207755 0.160211485280109 23.000000000000000
13.559265556521744 0.595458236403616 0.118575327510124 22.000000000000000
13.525993455946521 0.572260227254397 0.078751255254438 29.000000000000000
13.543253409525555 0.571898841148773 -0.001327901712261 29.000000000000000
13.581750544383565 0.595385600189800 -0.041822535270331 21.000000000000000
13.544048187478992 0.571923399220310 -0.080924134392020 31.000000000000000
13.570046126178969 0.552392350591973 -0.121913792851354 27.000000000000000
13.608179050619961 0.575757880617658 -0.164257741578093 26.000000000000000
13.566133022145287 0.552324312970157 -0.201962084860048 33.000000000000000
13.496201038017954 0.575761161813489 -0.237842366575396 27.000000000000000
13.491608476303783 0.575635193552237 -0.316981648409996 29.000000000000000
13.504920612734825 0.556480539125111 -0.357541202441133 30.000000000000000
13.614155841880393 0.579203317113866 -0.404989334629778 28.000000000000000
13.627330704074092 0.555812299589050 -0.445696690157681 22.000000000000000
13.648491858371525 0.578991517969840 -0.487507529850252 22.000000000000000
13.653491045991531 0.555611823749686 -0.527325826969339 29.000000000000000
13.670358704582585 0.579094397348406 -0.569509409225068 29.000000000000000
13.706874337924265 0.559023958409689 -0.612357369203309 33.000000000000000
12.919136133795474 0.562368480668496 -0.623838518204685 40.000000000000000
12.891674151603914 0.539816917855738 -0.660576089590345 16.000000000000000
12.872555194809303 0.562003009981126 -0.694954560628123 6.000000000000000
13.486071566969235 0.583119414361626 -0.793185766945888 39.000000000000000
13.430364927578461 0.564039769994203 -0.826832968692565 41.000000000000000
13.645295194039207 0.586672449290546 -0.889017265174962 21.000000000000000
13.732675885178258 0.562898219440712 -0.937639793074685 29.000000000000000
13.756910621417306 0.566560316138421 -1.183324639107771 30.000000000000000
13.131317079004255 0.572401629472949 -1.337832204737812 24.000000000000000
12.275070632080290 0.536241267209292 -1.436496483905824 8.000000000000000
11.279314037882628 0.467665709898910 -1.446068749516130 8.000000000000000
10.412864224705856 0.446594355999871 -1.510978885144074 7.000000000000000
9.026599950848942 0.381266396105922 -1.561817763992214 12.000000000000000
8.952066545350673 0.385780476058450 -1.701996389225533 10.000000000000000
6.418304490879000 0.263900967930574 -1.681239359860799 6.000000000000000
4.709616941460504 0.192636583772334 -1.675808984121193 3.000000000000000
13.057608072381086 0.487779607702308 1.207323504861360 26.000000000000000
13.220466532548507 0.493813149090300 0.826467417156988 28.000000000000000
13.296049853456774 0.496747215453425 0.593518101209650 34.000000000000000
13.376603794658269 0.542020402386449 0.438318019780425 28.000000000000000
13.376232825650312 0.518745035873593 0.398259531227296 28.000000000000000
13.399497591064913 0.499454384389665 0.358098574618672 35.000000000000000
13.423228681749606 0.522513488194200 0.318597939602672 36.000000000000000
13.402467084568229 0.499365936447013 0.279443333728321 30.000000000000000
13.425940791401963 0.522349714338816 0.239554317998542 32.000000000000000
13.441264266895571 0.545407710822509 0.200654291330840 31.000000000000000
13.452180461959127 0.521997710656088 0.160090821435131 33.000000000000000
13.486733046682581 0.502565516849423 0.119162910210514 35.000000000000000
13.485746201842097 0.525882603677715 0.079281193837689 31.000000000000000
13.484279817266620 0.502458373163506 0.039600463933438 33.000000000000000
13.519028327176622 0.525334719019533 -0.001168758308000 31.000000000000000
13.533643375696938 0.548738125815298 -0.040620426736974 29.000000000000000
13.515859692424618 0.525363144959357 -0.080449449075142 35.000000000000000
13.553698495759056 0.505724139555305 -0.121917561883383 39.000000000000000
13.567958752870371 0.529082882131483 -0.163025833126191 32.000000000000000
13.549817201347148 0.505659289714387 -0.201871169772349 35.000000000000000
13.571840779149834 0.528755518014940 -0.242800957281356 33.000000000000000
13.569482247721202 0.505573696017855 -0.282030430521312 35.000000000000000
13.595196420563250 0.528547478124729 -0.324102209763754 36.000000000000000
13.628296006080758 0.508854196498000 -0.366253372330667 37.000000000000000
13.601912518165953 0.532318648980095 -0.404934843682668 34.000000000000000
13.626990603902627 0.508805576759080 -0.446449384494375 32.000000000000000
13.612343692486734 0.532116582478793 -0.485631751368761 32.000000000000000
13.641211694621951 0.508599511786969 -0.527168985592084 41.000000000000000
13.638240851600704 0.532099199620298 -0.567740077790407 36.000000000000000
13.674612957490634 0.512001001148683 -0.610497299971201 38.000000000000000
12.894906569245995 0.518012975018841 -0.622448885059304 12.000000000000000
13.022737601025598 0.494203024056254 -0.673251188072787 19.000000000000000
13.027573081531331 0.516565163694395 -0.710236742002276 42.000000000000000
13.684922821416242 0.535654908927533 -0.813208558031099 37.000000000000000
13.688710238612137 0.515677440866213 -0.853385090829974 29.000000000000000
13.708687263528612 0.539233629127594 -0.896312823436470 30.000000000000000
13.712444047166052 0.515669244957166 -0.936297046291188 33.000000000000000
13.724808328151372 0.519324522706334 -1.180166555568931 32.000000000000000
13.043853245169398 0.527710046717935 -1.326266624024325 29.000000000000000
12.274614544453442 0.493956249450697 -1.437174145308450 8.000000000000000
11.274680660248519 0.428921206066043 -1.446006086502355 8.000000000000000
10.404246865307423 0.410963407643742 -1.510025023979807 7.000000000000000
9.029503371396141 0.350201986496778 -1.563212935231804 14.000000000000000
8.951081802119418 0.355092306017738 -1.702489970353856 10.000000000000000
6.413120356625817 0.242279066821609 -1.680296396721734 6.000000000000000
12.756327430965145 0.473022117196273 2.317024630607313 17.000000000000000
13.065112437920412 0.442650465167503 1.207030116235603 25.000000000000000
13.223948782983800 0.448169256078288 0.825833153006575 28.000000000000000
13.328050489506555 0.473534508462208 0.554498628859161 33.000000000000000
13.348297868394106 0.496116913421055 0.437728896052506 27.000000000000000
13.371857982666514 0.472648825548198 0.397554105860780 32.000000000000000
13.402802375932131 0.476421429037543 0.318142038917576 36.000000000000000
13.417539277425366 0.476124175150247 0.238974030624340 33.000000000000000
13.424960101694646 0.499175823002162 0.200280536759766 30.000000000000000
13.459799945044747 0.475523536356512 0.159139501859789 29.000000000000000
13.477319096968802 0.479442435258292 0.078792236516581 36.000000000000000
13.506630987229881 0.478821896683662 -0.001461297551953 34.000000000000000
13.509352796474074 0.502241615665710 -0.040390521758134 35.000000000000000
13.515480298313749 0.478742558945697 -0.081195989064178 31.000000000000000
13.545177950699324 0.459071330402686 -0.122293000358469 41.000000000000000
10.020711234532873 0.367185148935746 -0.136968089934269 0.000000000000000
13.559451555268565 0.482055717127039 -0.242884726192797 36.000000000000000
13.602799247307207 0.481580331778972 -0.325344010841508 29.000000000000000
13.615788762327687 0.461987179888467 -0.366234681263141 41.000000000000000
13.597486089506340 0.485430619796873 -0.405417047819374 37.000000000000000
13.610525399993087 0.461980327624325 -0.446079613631991 26.000000000000000
13.607944919757735 0.485199198839176 -0.486091277671872 32.000000000000000
13.628767320877666 0.461672078432620 -0.527010937670150 32.000000000000000
13.637857700744151 0.485053090203238 -0.568493391948444 33.000000000000000
13.670091729232224 0.464876559816759 -0.610925394029620 44.000000000000000
13.671005298010046 0.488492559890290 -0.651686281391117 37.000000000000000
13.149650126136851 0.447722985826921 -0.685578258699833 23.000000000000000
13.489059085057697 0.466871132424281 -0.754322575328892 27.000000000000000
13.648707251570110 0.488742982843334 -0.810492413619675 32.000000000000000
13.636435115349764 0.469047337456658 -0.848976378462154 24.000000000000000
13.692332447396469 0.492083294024788 -0.895433583571295 31.000000000000000
13.707957303117722 0.468409945966592 -0.936634108828344 34.000000000000000
13.708419928079861 0.472145995262842 -1.178964916018320 28.000000000000000
12.919954446960817 0.439452683668819 -1.310375150252364 27.000000000000000
12.266109372574027 0.451778730772958 -1.436595492140401 8.000000000000000
11.269910926797483 0.390206848981293 -1.445943060418386 8.000000000000000
10.407280104974197 0.375121524971142 -1.511363632046510 7.000000000000000
9.016713023234235 0.319631454411876 -1.561017955340477 13.000000000000000
8.946108114560072 0.324535515619843 -1.702021028221402 10.000000000000000
6.422966739978610 0.219734401345782 -1.684538642762998 6.000000000000000
4.718786113667949 0.175711968042144 -1.681129529045466 6.000000000000000
12.928796971511616 0.437284695535297 1.656047909476867 21.000000000000000
13.244556092514497 0.425102430451858 0.787565772614796 24.000000000000000
13.311528824829939 0.450684672726098 0.592884668025489 32.000000000000000
13.351828736340925 0.450034468969442 0.436969932269277 28.000000000000000
13.383319013164984 0.426373581650495 0.396714563077580 24.000000000000000
13.390975217713311 0.453342762833344 0.357449103525455 36.000000000000000
13.418207441528875 0.429969248754944 0.317172335391981 32.000000000000000
13.409968449917853 0.453045041189874 0.278565205590549 28.000000000000000
13.424970600390921 0.429739540386237 0.238070999741391 28.000000000000000
13.432485795138362 0.452781892873588 0.199354174704533 26.000000000000000
13.479250280344997 0.428842612585321 0.157874024655716 24.000000000000000
13.486205959263375 0.456047968206356 0.118417850079806 37.000000000000000
13.488716659337317 0.432791133254952 0.077663217018109 32.000000000000000
13.499768891758386 0.455760387283391 0.038296740820934 34.000000000000000
13.522047843286012 0.432023384760384 -0.002814026099094 26.000000000000000
13.496888761230817 0.455779719484482 -0.040647440118859 32.000000000000000
13.554895190034161 0.431622177282215 -0.083693796915871 28.000000000000000
13.562930397021429 0.435529225361201 -0.164325986583795 35.000000000000000
13.553308773876944 0.458876425509700 -0.202829984478734 28.000000000000000
13.570859396361369 0.435130109026844 -0.244300440291996 27.000000000000000
13.569005217895308 0.458768634230204 -0.282780043454210 37.000000000000000
13.622212709992052 0.434413452981424 -0.327323810234652 24.000000000000000
13.612847619664620 0.438315121434442 -0.407245265075932 33.000000000000000
12.872701200122689 0.403211289713518 -0.433712597407024 0.000000000000000
13.635292804810005 0.437905891313193 -0.488891417267148 27.000000000000000
13.653257710081125 0.437818489797699 -0.570510782943318 30.000000000000000
13.685335319550729 0.417478095231310 -0.612991081598997 37.000000000000000
13.650474964279292 0.441595079734071 -0.650744606982782 35.000000000000000
13.360993852472857 0.422100715077235 -0.743097466921452 35.000000000000000
13.166124519650417 0.428996499897856 -0.802821887155335 63.000000000000000
12.950963507380512 0.409676385569703 -0.820773208810803 23.000000000000000
13.592260270857375 0.446124677547736 -0.885957237800958 23.000000000000000
13.408975760322134 0.425363393169413 -0.905839350279186 29.000000000000000
13.703774769166952 0.424914412269956 -1.179232173141578 24.000000000000000
12.261405879127478 0.409592096479862 -1.436644477074944 9.000000000000000
11.272884365392315 0.351342676283110 -1.447251067438874 8.000000000000000
10.398411821010425 0.339565268265787 -1.510408796436812 7.000000000000000
9.019397509863904 0.288574727310348 -1.562413190338461 14.000000000000000
8.944906730067014 0.293868501380061 -1.702514456753508 10.000000000000000
6.406300043661012 0.198875211238253 -1.679705769044752 7.000000000000000
4.708070544384620 0.144629227899777 -1.678272270065741 10.000000000000000
14.187494630354259 0.396237770930469 3.275236317762400 2.000000000000000
13.112394677570528 0.396799848940326 1.208872871564407 18.000000000000000
13.247261449277472 0.402161232125991 0.825677440422679 28.000000000000000
13.334843380360347 0.404378321755559 0.592299463906358 30.000000000000000
13.387192885593752 0.403427424481009 0.436035964753017 21.000000000000000
13.454605889750665 0.379018385101702 0.395366178752236 8.000000000000000
13.422282993468590 0.406636430401889 0.356344452093953 25.000000000000000
13.461440611851904 0.382912791827287 0.315798034761522 20.000000000000000
13.461294290410722 0.405983945306978 0.276925990289499 18.000000000000000
13.480221228596710 0.382484117493703 0.236193754585394 16.000000000000000
13.443846134522165 0.406263036894686 0.198334374103446 19.000000000000000
13.530519782279534 0.381500956051404 0.155769442060874 7.000000000000000
13.493510629547060 0.409402788980003 0.117440118799244 33.000000000000000
13.535925155785156 0.385432385345730 0.075377495092525 25.000000000000000
13.511095497073828 0.409014110230686 0.037131058598055 24.000000000000000
13.561278212850342 0.384713853676956 -0.005079746594651 15.000000000000000
13.528220328288958 0.408747105716046 -0.042699759850947 27.000000000000000
13.598137340069227 0.384160867259936 -0.086371489128909 9.000000000000000
13.556469268480173 0.412160618264032 -0.123602065395395 36.000000000000000
13.610100071571182 0.387926208948855 -0.167463642966054 26.000000000000000
13.600569406523105 0.411406665069372 -0.206104843639458 21.000000000000000
13.626027178292025 0.387399516159853 -0.248164161253862 18.000000000000000
13.576348862140655 0.411839300636935 -0.283997123628936 26.000000000000000
13.577587834070313 0.388119067619527 -0.325371912084299 5.000000000000000
13.619082125496284 0.414957552094705 -0.367244415729498 36.000000000000000
13.667945637393418 0.390418366229142 -0.411769992685253 25.000000000000000
13.641772533044849 0.414561447482292 -0.449078590818164 24.000000000000000
12.869632191331810 0.380982872879798 -0.470695922010232 2.000000000000000
13.648062598533778 0.414368409933530 -0.529284306196740 27.000000000000000
13.756204410224390 0.389112792983283 -0.579486543423462 20.000000000000000
13.609855759471959 0.395169168209904 -0.648102715801840 24.000000000000000
13.438796890674627 0.374855049524299 -0.672694685282826 50.000000000000000
13.407829361651851 0.398263544873380 -0.709897419492695 29.000000000000000
12.950396234276580 0.387548532297856 -0.782071070329597 30.000000000000000
13.196723490097988 0.360153100379101 -0.846893644124339 23.000000000000000
13.738655792490039 0.377021614707111 -1.184403131746888 20.000000000000000
12.994402857411121 0.393627639040552 -1.321716126597240 24.000000000000000
12.264452960620540 0.367275134993214 -1.437950395602584 8.000000000000000
11.271780919708391 0.312555781180819 -1.447873619484003 8.000000000000000
10.393343355420109 0.303948765402957 -1.510217980137769 7.000000000000000
9.021971477053956 0.257495234427864 -1.563808881283407 14.000000000000000
8.947476094558247 0.263051033051141 -1.703970897288560 10.000000000000000
6.404662223833076 0.177071139970472 -1.680058531441247 8.000000000000000
4.706237436726440 0.128751162520992 -1.678530889186516 13.000000000000000
14.281000150406205 0.345480614450715 3.292857978470958 18.000000000000000
15.404979649924272 0.390314632287684 2.692642783861014 1.000000000000000
13.175486245151223 0.350294475001945 1.211564170773973 1.000000000000000
13.314388780865229 0.355096694306305 0.826570456116705 11.000000000000000
13.401983499592065 0.357027446472429 0.591984486201469 11.000000000000000
13.446385974534135 0.356133686742908 0.434965445815622 5.000000000000000
13.485415683845916 0.359079140224274 0.354869551692041 5.000000000000000
13.495024285338255 0.358936816430841 0.196384761107873 5.000000000000000
13.548620977015693 0.361771728364566 0.115063148648183 13.000000000000000
13.594199691429075 0.360833112836225 0.033441279881416 1.000000000000000
13.571372097486655 0.361287412866744 -0.045246595445158 6.000000000000000
13.611538244954465 0.364326889954100 -0.126970788152373 19.000000000000000
13.621150730231637 0.340732736993601 -0.168813587857917 0.000000000000000
13.623696940252312 0.364049262691651 -0.208120801808736 3.000000000000000
13.643414383610326 0.363796856788717 -0.288725068461491 17.000000000000000
13.642164469904429 0.367526992429816 -0.369542923590781 30.000000000000000
12.905927366537798 0.336416078081868 -0.398825251939760 16.000000000000000
12.902737136198477 0.313727880845143 -0.437481378093135 6.000000000000000
12.928523117030972 0.335359222654013 -0.475975184891803 13.000000000000000
12.921096074074363 0.312959819509999 -0.514828027857607 3.000000000000000
12.970019835834021 0.338860379874376 -0.555785628166055 6.000000000000000
13.716354222917548 0.369675656267987 -0.616369917647414 24.000000000000000
12.971724881165995 0.338515146100029 -0.632325662193938 6.000000000000000
12.979763560522574 0.315544469768980 -0.672494842581293 13.000000000000000
13.714584013732301 0.369883694899855 -0.777147584284497 23.000000000000000
13.539085663442888 0.349525029340789 -0.802320856986370 3.000000000000000
13.570173173800491 0.329335770580322 -0.844869557704638 37.000000000000000
13.156622368051380 0.338190948293132 -0.880789653920668 21.000000000000000
13.820992230647741 0.327886731090580 -1.195465650029544 21.000000000000000
13.005326018134030 0.348587989909177 -1.324112791045732 24.000000000000000
12.259452182250724 0.325127967156995 -1.437999166724626 8.000000000000000
11.270540620448624 0.273772971607229 -1.448496223031680 8.000000000000000
10.399921400656565 0.267966422902134 -1.512321956653607 7.000000000000000
9.024434828125100 0.226384064076420 -1.565204948643534 16.000000000000000
8.946057113627758 0.232370320189574 -1.704464507904169 9.000000000000000
6.402946828369491 0.155272914877777 -1.680411265527050 9.000000000000000
4.700742942411050 0.113276871801517 -1.677101320507860 14.000000000000000
14.213403001269498 0.297680122700179 3.279034541599683 27.000000000000000
12.828734073128130 0.295245953989678 2.324880998119760 1.000000000000000
15.419816597038707 0.322142094981771 0.242214592386913 28.000000000000000
14.363446231618667 0.304277025873823 -0.416970225881148 29.000000000000000
12.892854846886831 0.292235430105919 -0.398694006036312 9.000000000000000
12.891555662470035 0.291674723597801 -0.473946830127021 1.000000000000000
12.956926564369947 0.294455308505960 -0.555517695996699 9.000000000000000
12.958663169561568 0.294101872183596 -0.631987850143951 7.000000000000000
14.429779106808049 0.331759600576909 -0.718862482272386 14.000000000000000
12.987868419899076 0.292884925650803 -0.710462421645221 11.000000000000000
14.410584464719847 0.332544198460397 -0.802161146878636 26.000000000000000
14.398430997781299 0.308316411936971 -0.842321649050866 30.000000000000000
13.469511275937393 0.285052840046205 -0.835665036570860 28.000000000000000
13.154659621711165 0.270218008763976 -0.844250452548518 16.000000000000000
12.797064613028219 0.264618703345164 -1.296431085560245 26.000000000000000
12.266149506270063 0.282682837251798 -1.439934746575254 9.000000000000000
11.265225089592905 0.235128973816963 -1.448432542400412 8.000000000000000
10.394601025402846 0.232372467290553 -1.512130995577369 7.000000000000000
9.022893934378194 0.195443905919355 -1.565703011123334 16.000000000000000
8.940651592707885 0.201885933605887 -1.703994779434024 10.000000000000000
6.397381229140731 0.133771087726345 -1.679466710511379 9.000000000000000
4.698797574865626 0.097424555315477 -1.677359621845613 14.000000000000000
14.216284163949963 0.248516640386498 3.279015022460921 14.000000000000000
0.510633929369904 0.008731241841502 0.092462710828358 0.000000000000000
15.389142561344364 0.297015204003770 1.873345143797462 29.000000000000000
15.027357836664478 0.260947559493658 1.309793105877243 7.000000000000000
15.677020536686586 0.283498718189549 0.653131957680697 7.000000000000000
15.364925028121897 0.266043915584447 0.513427869861066 35.000000000000000
15.429552947920437 0.291669708067630 0.468601091569054 26.000000000000000
15.420905628279073 0.265875676237002 0.423220566246905 25.000000000000000
15.401272832469653 0.293402856394984 0.378040745009138 30.000000000000000
15.415747064616387 0.267655153076788 0.331885023100011 31.000000000000000
15.435870467388598 0.294658337787311 0.286523842967319 26.000000000000000
15.422680907979613 0.268789741952688 0.241292137634612 26.000000000000000
15.422513696568975 0.296109028535014 0.195925317272247 26.000000000000000
15.401083292729494 0.270561848345729 0.151256930954659 29.000000000000000
15.424622363298692 0.297207562716075 0.105337405494526 33.000000000000000
15.442289908412455 0.271508716761019 0.058978914953729 31.000000000000000
15.453587421725455 0.298656291404768 0.012908437317024 23.000000000000000
15.431609369907868 0.272933575399911 -0.031880435017255 28.000000000000000
15.422646946856984 0.300236033577633 -0.076695595531895 33.000000000000000
15.420413456795929 0.274413307981725 -0.121830639549247 34.000000000000000
15.439130232067779 0.301200421577725 -0.168054505170960 43.000000000000000
15.432039420401919 0.276033318165233 -0.213146296115404 36.000000000000000
15.427741230920223 0.277294670380051 -0.304220180446094 31.000000000000000
14.666140241973965 0.268954253852385 -0.307836713029337 6.000000000000000
14.539470070581618 0.247340325125776 -0.342978958829341 26.000000000000000
14.421841427439585 0.275175120918540 -0.379092729991625 28.000000000000000
13.137894769915262 0.243906169755462 -0.725428630490998 1.000000000000000
13.174670552474755 0.265451638599878 -0.768610864032399 15.000000000000000
13.281178452755238 0.243993002349931 -0.817684510395584 21.000000000000000
13.110469186976099 0.248709909795409 -0.877606803584730 21.000000000000000
14.490498464676607 0.263845808890437 -1.279182730551577 12.000000000000000
12.260851286198692 0.240552201778343 -1.439983348005396 9.000000000000000
11.255835936120075 0.196665484209980 -1.447681912542447 8.000000000000000
10.393078397246882 0.196651124170252 -1.512705123457094 7.000000000000000
9.021243575976776 0.164509310954912 -1.566201077439901 14.000000000000000
8.942893524727459 0.171043277049790 -1.705451897390326 9.000000000000000
6.406826466914660 0.111088197781697 -1.683711564742682 9.000000000000000
4.696795405571097 0.081579120526413 -1.677617860100564 14.000000000000000
12.763048581196061 0.208833088839690 2.314479991532423 23.000000000000000
15.376062238962588 0.244145155738330 1.871432748940811 27.000000000000000
15.688035009101897 0.252637368300142 0.882484306367124 7.000000000000000
15.532341092636971 0.260649917993689 0.604354000180813 7.000000000000000
15.355611161434389 0.213189325804542 0.512575864550363 34.000000000000000
15.412343836883197 0.238761722216623 0.467790354556275 27.000000000000000
15.391623796259891 0.213329058079509 0.422524885476369 22.000000000000000
15.392094500477761 0.240394170734596 0.377257331498289 25.000000000000000
15.422391631751148 0.214193507489995 0.330939643566060 32.000000000000000
15.418632505634692 0.241734787010230 0.285901860594626 24.000000000000000
15.401368959580271 0.216044961391709 0.240787645476639 27.000000000000000
15.401310123378300 0.243317895203724 0.195479914552795 24.000000000000000
15.399793274019993 0.217365753707220 0.150404914987433 28.000000000000000
15.419442020760586 0.244022634188447 0.104589205992730 22.000000000000000
15.424947839098863 0.218592266164713 0.058592458726378 30.000000000000000
15.424364169183693 0.245959497421659 0.012955232445624 28.000000000000000
15.414301864911071 0.220049547523843 -0.032171870874401 24.000000000000000
15.433421189648280 0.246680700353210 -0.078005611679137 31.000000000000000
